# .PCD v0.7 - Point Cloud Data file format
VERSION 0.7
FIELDS x y z
SIZE 4 4 4
TYPE F F F
COUNT 1 1 1
WIDTH 1411
HEIGHT 1
VIEWPOINT 0 0 0 1 0 0 0
POINTS 1411
DATA ascii
0.056581084 0.018068019 0.70469517
0.068199366 0.017397186 0.70312417
0.075501151 0.016741876 0.70216697
0.083709314 0.017034885 0.70095813
0.028780743 0.028267171 0.70734537
0.036994569 0.027878014 0.70622373
0.046825763 0.027101079 0.70492136
0.057723381 0.025997018 0.70350903
0.066650383 0.02594129 0.70224261
0.076752171 0.025039582 0.70091772
0.083782315 0.026528914 0.69972259
0.0023765385 0.034896299 0.71025699
0.030358598 0.03449716 0.70631629
0.036853794 0.035729434 0.70523065
0.046247806 0.036746476 0.70375913
0.057441313 0.035396174 0.70233643
0.066707596 0.033731371 0.70122921
0.078966506 0.032259949 0.69967014
0.082858846 0.032313801 0.69910783
-0.3916091 0.057521362 0.76354736
-0.38818589 0.057889685 0.76301146
-0.39233103 0.061891183 0.76308644
-0.38779584 0.060034089 0.7626791
0.028417969 0.13877679 0.69313711
0.031356614 0.13957877 0.69261438
0.018367426 0.14662699 0.69355804
0.025690399 0.14576684 0.69262433
0.031845588 0.1453789 0.69179618
0.30966318 0.14249836 0.65253168
-0.0011467559 0.15888523 0.69476032
0.0063324254 0.15623981 0.69403464
0.015637631 0.15535414 0.69282138
0.025517253 0.15552466 0.69138986
0.034258384 0.15572245 0.69011724
0.040438481 0.15899277 0.68881351
0.13446204 0.15520899 0.67588747
0.13990492 0.15600827 0.67500776
0.30784214 0.14967513 0.65186542
-0.010971155 0.16874477 0.69488972
-0.0041047465 0.16650295 0.69419938
0.0059287664 0.16574837 0.69286531
0.015743695 0.16540964 0.69150871
0.02532967 0.16532154 0.69015241
0.035370108 0.16509439 0.68874931
0.043017011 0.16607982 0.68753117
0.052681655 0.16952845 0.68570727
0.13413718 0.16326573 0.67489415
0.14220117 0.16381392 0.67367291
0.14847296 0.16613413 0.67247874
0.3087174 0.16392913 0.64990127
-0.012683915 0.17640983 0.69414502
-0.0046661235 0.17573056 0.69308877
0.005950511 0.1758652 0.69155669
0.015695112 0.17556691 0.69020498
0.025543652 0.17550623 0.68880773
0.035500336 0.17538385 0.68740296
0.044913817 0.17519791 0.68608397
0.051957909 0.17554699 0.68503392
0.080339968 0.17565393 0.68097091
0.1140599 0.17608163 0.67610484
0.11893152 0.17607409 0.67541075
0.13392144 0.17376944 0.67356956
0.14303674 0.17361033 0.67228967
0.15208723 0.17372489 0.67098361
0.15828252 0.17407061 0.67005509
0.30798593 0.1718021 0.64898974
-0.021629911 0.18920471 0.69377029
-0.01265962 0.18555686 0.69296122
-0.0047707474 0.18534629 0.69186288
0.005955229 0.18578278 0.69027632
0.015636025 0.18569221 0.68890685
0.025203671 0.18567738 0.68754375
0.035919942 0.18540278 0.6860503
0.044975452 0.18508647 0.68479919
0.054338139 0.18431152 0.68356341
0.063880488 0.1845586 0.68217009
0.073996156 0.18548398 0.68060744
0.083261542 0.18434668 0.67943233
0.094049662 0.18597053 0.67768371
0.10349368 0.18394713 0.67659742
0.11294648 0.1831717 0.67534882
0.12269647 0.18350787 0.67391443
0.13258785 0.18313128 0.67255181
0.14291637 0.18297541 0.67109835
0.15267724 0.18263471 0.66974974
0.15856774 0.18202589 0.66898787
0.18491241 0.18327005 0.66506875
0.19083866 0.18347864 0.66419637
0.20085399 0.18486391 0.66258872
0.2093116 0.18540998 0.66131157
0.30820692 0.17974195 0.64793366
-0.022366721 0.19537498 0.69307923
-0.014570762 0.19526358 0.69198138
-0.0048396927 0.19492702 0.69063646
0.005698333 0.19528148 0.68908727
0.015355098 0.19534248 0.68770164
0.023608705 0.19536279 0.68652153
0.038597461 0.19493142 0.68443871
0.045028932 0.19449511 0.68357748
0.054365192 0.1941871 0.68228519
0.063876651 0.19429024 0.68091494
0.073553935 0.19401492 0.67956978
0.083796382 0.19380391 0.67813569
0.093755066 0.19374879 0.67672199
0.10333764 0.19329943 0.67541283
0.11329609 0.19328375 0.67399412
0.122918 0.19311613 0.67264295
0.13249063 0.19292247 0.6713022
0.14274012 0.19261314 0.66987985
0.15235086 0.19244413 0.66853052
0.15978912 0.19327517 0.66736203
0.16991821 0.19451411 0.66575706
0.18476832 0.19125575 0.6640588
0.1905842 0.19140446 0.66320992
0.20206819 0.19034167 0.66170865
0.20946975 0.19139421 0.6605168
0.22459963 0.19352393 0.65808344
0.22588627 0.19350062 0.6579029
0.23891997 0.191902 0.65624964
0.30965403 0.18995015 0.64640993
-0.022911007 0.20080285 0.69245648
-0.013422257 0.20185861 0.69096649
-0.0054856734 0.2013479 0.68990004
0.0050808927 0.20267288 0.68822157
0.014719198 0.20349105 0.68674093
0.024651185 0.20458984 0.68518215
0.034437571 0.2043791 0.6838131
0.043994106 0.20453043 0.68243015
0.054032158 0.20423351 0.68103629
0.063695684 0.20397297 0.67969126
0.073224865 0.20368068 0.67836946
0.083626412 0.2039734 0.6768477
0.093876049 0.20376688 0.67541206
0.10348834 0.20370576 0.67404854
0.11309284 0.20345245 0.67271096
0.12265933 0.20313571 0.67138696
0.1322861 0.20306055 0.67002326
0.14252929 0.20283505 0.6685909
0.15222839 0.20275362 0.66721767
0.15972207 0.20280565 0.66614187
0.17051494 0.19708508 0.66534019
0.19151421 0.20232019 0.66166866
0.19928221 0.2031852 0.66044879
0.22447148 0.20062611 0.65718526
0.22583964 0.19608323 0.65757626
0.24045989 0.20160364 0.65477806
0.25076351 0.20181741 0.65328044
0.25930545 0.20167977 0.65207952
0.26702964 0.203244 0.65077567
0.29193753 0.20392251 0.64713454
0.29898053 0.20307343 0.64623928
0.30863902 0.20024279 0.6452266
0.0090656551 0.21662883 0.68585217
0.013422564 0.21574311 0.68534487
0.025675425 0.2142722 0.68378663
0.034449767 0.21434209 0.68252575
0.044075269 0.21387176 0.68121314
0.053866662 0.21387549 0.67981577
0.063545302 0.2135496 0.67847699
0.073159039 0.21343674 0.67711997
0.083464086 0.21404906 0.67557073
0.093631119 0.21374457 0.67415947
0.1032026 0.21333872 0.67284626
0.11283552 0.21315381 0.6714958
0.12279002 0.21278888 0.67012268
0.13216336 0.21286649 0.66877544
0.14224082 0.21282206 0.66734338
0.15246135 0.2126426 0.66590834
0.16179836 0.21250106 0.66459453
0.16946019 0.21480775 0.66320372
0.18355364 0.2126503 0.66147149
0.19085293 0.21156505 0.66057009
0.20054169 0.21129715 0.65922242
0.20976466 0.21246319 0.65775603
0.22063334 0.21329215 0.65609843
0.22809836 0.21346928 0.65501052
0.23994985 0.21120901 0.65361136
0.25037965 0.21128698 0.65211326
0.2596035 0.21040036 0.65091175
0.26877621 0.21094313 0.64953303
0.27759829 0.21450928 0.64781421
0.2910839 0.21028243 0.64643568
0.29919779 0.20952974 0.64537513
0.30813956 0.20964615 0.64408439
-0.021033704 0.22744715 0.68875051
-0.016994946 0.22684184 0.68825239
-0.0022561429 0.22685288 0.68614817
0.0053209439 0.22533764 0.68526274
0.014391149 0.22443905 0.68408459
0.024283599 0.22436354 0.68268305
0.034603879 0.22435245 0.68121207
0.044191711 0.2240421 0.6798842
0.05390282 0.2240198 0.67850161
0.064131111 0.2239321 0.67705363
0.073687792 0.2239109 0.67569292
0.083320789 0.22395495 0.67431295
0.093593791 0.22379723 0.6728676
0.10319658 0.22346659 0.67154026
0.11277133 0.22321892 0.67020619
0.12253909 0.22310355 0.66882753
0.13265464 0.22301659 0.66739553
0.14265458 0.22294495 0.66597813
0.15220787 0.22272249 0.66464382
0.16200145 0.22230946 0.66329986
0.17095229 0.22267596 0.66197556
0.18124923 0.22181962 0.66061699
0.19109029 0.22113274 0.65930164
0.20072912 0.22142844 0.65788829
0.21049103 0.22141144 0.65649778
0.22042675 0.22135615 0.65508741
0.22931419 0.22112471 0.65384924
0.24023458 0.22078376 0.65233523
0.24952425 0.2205494 0.65104014
0.25957289 0.22013596 0.64965987
0.26924226 0.22016525 0.64827657
0.27946955 0.21985595 0.64685738
0.28920808 0.21970619 0.64548725
0.29863623 0.21975455 0.64413595
0.30817437 0.21939151 0.64282197
-0.021951681 0.23555334 0.68783545
-0.016112104 0.23472846 0.68710876
-0.0045100339 0.23554042 0.68534869
0.0047933366 0.23454635 0.68414968
0.014305457 0.23440191 0.68281126
0.023961555 0.23422067 0.68145698
0.034347754 0.2344766 0.67994219
0.044079252 0.23423508 0.67858493
0.053585898 0.23410827 0.67724502
0.063984983 0.23402277 0.67577243
0.074221969 0.23369797 0.67435378
0.083924286 0.23357752 0.67298514
0.093219131 0.23390627 0.67161661
0.1032275 0.23363875 0.67022324
0.11306726 0.23323719 0.66887122
0.12253147 0.23318172 0.66752809
0.13284418 0.23276639 0.6661104
0.14248925 0.23281355 0.66472828
0.15213811 0.23275897 0.66335869
0.16168903 0.23219326 0.66206908
0.17144135 0.23185858 0.66072088
0.1814456 0.23177493 0.65930438
0.19083294 0.23124902 0.65803301
0.20099317 0.23146583 0.65655541
0.21058196 0.23126082 0.65521383
0.21999261 0.23094764 0.65391165
0.23015441 0.23038128 0.65253496
0.23937476 0.23040913 0.65121585
0.24967515 0.23056567 0.64972609
0.2594679 0.23006444 0.64839369
0.26897252 0.22992347 0.64705586
0.27924672 0.22966804 0.64562297
0.28892869 0.22960621 0.64424962
0.2984834 0.22960231 0.642887
0.30850816 0.22941557 0.6414808
-0.023191363 0.24484909 0.68681288
-0.015433639 0.24495356 0.68569261
-0.0056753643 0.24468406 0.68433511
0.0045111021 0.24434549 0.68292552
0.014439913 0.24436183 0.68150687
0.023978047 0.24425274 0.68016016
0.034421805 0.24423555 0.67867237
0.04397805 0.24412994 0.67732263
0.053575195 0.24389258 0.67598403
0.063845225 0.24349119 0.67457056
0.073660083 0.24352156 0.67316633
0.083239958 0.24330309 0.67182779
0.093143389 0.24358346 0.67037868
0.10352992 0.24281444 0.66899604
0.11286572 0.24298249 0.66764247
0.12268151 0.24284968 0.66625917
0.132083 0.24122778 0.66512722
0.14270259 0.24264093 0.66342974
0.15226454 0.24261755 0.66206855
0.1615171 0.24193326 0.66083676
0.17129573 0.24179178 0.65945995
0.18131293 0.24155517 0.65806127
0.19134589 0.24159543 0.65662467
0.20091008 0.24121228 0.65530962
0.21051127 0.24141531 0.65391362
0.22067198 0.2405421 0.65257663
0.23020802 0.24067861 0.65119857
0.23945227 0.24063237 0.64988565
0.24960648 0.24053256 0.64844984
0.25972497 0.24001479 0.64707303
0.26954594 0.24015512 0.64565378
0.27888551 0.23954299 0.6444003
0.2890884 0.23942669 0.64295965
0.29884276 0.23917945 0.64159989
0.30900833 0.23929636 0.64013451
0.31427166 0.24076007 0.63919473
-0.031984415 0.25586292 0.6866461
-0.024773777 0.25490418 0.68574113
-0.015388302 0.25479525 0.68441612
-0.00558626 0.2547639 0.68302172
0.0046550175 0.25476554 0.6815604
0.014247473 0.25460538 0.6802125
0.023974203 0.25453499 0.67883384
0.034356896 0.25418261 0.67739809
0.043912087 0.25402418 0.67605525
0.053476539 0.25384322 0.67471403
0.063695394 0.25357008 0.67329139
0.073875077 0.25346431 0.67185265
0.083395332 0.25372672 0.67046058
0.093139835 0.25361481 0.66908479
0.10317023 0.25312454 0.66771698
0.11284934 0.25313294 0.66633499
0.12236099 0.25284779 0.66501474
0.12899688 0.25386378 0.66393691
0.14420587 0.25004372 0.66226
0.15267178 0.25109744 0.66091621
0.16213244 0.25164348 0.65949595
0.17103173 0.25175679 0.65821171
0.1810645 0.25166783 0.65679181
0.1912372 0.25147972 0.65536475
0.20090176 0.25146061 0.65398836
0.21055058 0.25122687 0.65264195
0.22060321 0.25090677 0.65124905
0.23026411 0.25091645 0.6498695
0.2396878 0.25056657 0.64857012
0.24991518 0.25040776 0.64713144
0.25980031 0.25013059 0.64575696
0.26936296 0.25000978 0.64440823
0.27918345 0.24997285 0.64301193
0.28887513 0.24961689 0.64167511
0.29877764 0.24908996 0.64033031
0.30894363 0.24907772 0.63888156
0.3141216 0.24907626 0.638143
-0.053305343 0.26955509 0.68792111
-0.042063423 0.26769182 0.68655771
-0.034526896 0.26555362 0.68575841
-0.025379354 0.26478341 0.68455273
-0.015439522 0.26487896 0.68312222
-0.0057615601 0.26452142 0.68178767
0.0046762284 0.26466063 0.68028051
0.01442493 0.2647211 0.67888188
0.023947993 0.26461604 0.67753679
0.034224376 0.26427436 0.67611474
0.043786619 0.26407361 0.67477638
0.053349528 0.26385185 0.67344064
0.063840732 0.26333797 0.67201018
0.073636018 0.26352113 0.67058909
0.082481891 0.26234102 0.66947931
0.09335801 0.26272061 0.66787863
0.10290089 0.26209798 0.66659755
0.11218701 0.26164013 0.66533172
0.12177456 0.25928426 0.6642679
0.16590637 0.25816661 0.65811586
0.17234863 0.25870654 0.65712708
0.18073171 0.25871441 0.65593004
0.19030191 0.25740314 0.65473384
0.20299035 0.25918087 0.65269417
0.2107265 0.26079914 0.65138167
0.22037987 0.26117003 0.64995652
0.23048244 0.2608403 0.64855778
0.23990615 0.26070255 0.6472311
0.24965569 0.26056442 0.64585793
0.25982314 0.26034367 0.64443582
0.26976115 0.26020247 0.64303619
0.27929312 0.26003841 0.64169747
0.28902224 0.25984073 0.6403349
0.29858682 0.25951216 0.63901269
0.30847362 0.2594507 0.63761008
0.31403229 0.25951466 0.63680881
-0.061831482 0.27874568 0.68795162
-0.05433657 0.27561557 0.68728626
-0.045739587 0.27514887 0.68611991
-0.035659544 0.27452332 0.6847626
-0.025085762 0.27460319 0.68324369
-0.015260909 0.27457461 0.68184566
-0.0056656883 0.27436939 0.68050319
0.0045309151 0.27421856 0.67906791
0.014081241 0.27428842 0.67769635
0.02378891 0.27458641 0.67627293
0.034006331 0.27378589 0.67491847
0.043811854 0.27403426 0.67348748
0.053729367 0.2734139 0.67215258
0.063402183 0.27288133 0.67084128
0.073273085 0.27295858 0.66942304
0.094000868 0.26838684 0.66705579
0.21231771 0.26787612 0.65024143
0.22034599 0.27061138 0.64874309
0.23032236 0.27055141 0.64732754
0.23958853 0.27056372 0.6460039
0.24935672 0.27062711 0.64460212
0.25951862 0.27029189 0.64319557
0.26907918 0.27027813 0.64183331
0.27871045 0.27003837 0.64049017
0.28892022 0.26966411 0.6390819
0.2988573 0.26941717 0.63769597
0.308487 0.2690556 0.63636881
0.31413251 0.2683695 0.63565189
-0.1105354 0.28705022 0.69382858
-0.10495856 0.28823882 0.69287962
-0.071667522 0.28925091 0.68799937
-0.063990958 0.2856949 0.68736303
-0.055141654 0.28515804 0.68616974
-0.045276929 0.28438577 0.68486202
-0.035461288 0.28492853 0.68339163
-0.025233785 0.28485465 0.68194199
-0.015419912 0.28478199 0.68055123
-0.0057434547 0.28442052 0.67921734
0.0044935658 0.28416336 0.67778993
0.013979338 0.28408724 0.6764465
0.023419663 0.28376117 0.67514169
0.034161925 0.28322986 0.67367768
0.041270748 0.28198394 0.6728242
0.055100769 0.28160986 0.67089939
0.06034492 0.28173658 0.67013484
0.22113456 0.27784735 0.64769685
0.23077559 0.27802169 0.64629889
0.23954375 0.27794251 0.64505816
0.24985525 0.27987814 0.64333719
0.25972909 0.27995771 0.64191824
0.26898175 0.27970049 0.64063144
0.27903709 0.27915078 0.63926768
0.28863418 0.27970153 0.6378274
0.29858401 0.27929717 0.63646007
0.30851564 0.27881593 0.63510525
0.31387773 0.2815924 0.633982
-0.11943559 0.29915211 0.69353676
-0.11383018 0.29878029 0.69278502
-0.10413396 0.29548904 0.6918264
-0.098838016 0.29813367 0.69072956
-0.082088642 0.29653949 0.68854564
-0.07428816 0.29543346 0.68757546
-0.065093175 0.29463467 0.68636674
-0.054947097 0.29497233 0.68487561
-0.045145012 0.29476106 0.6835044
-0.035775807 0.29466635 0.68217993
-0.025007373 0.29496244 0.68060535
-0.015482285 0.29481226 0.6792658
-0.0058262493 0.29459906 0.67791569
0.0042477171 0.29467425 0.67646873
0.013936431 0.29407254 0.6751641
0.022198727 0.29451045 0.6739288
0.030659528 0.29774696 0.67230409
0.25069332 0.28858238 0.64209449
0.26019034 0.28576183 0.64110351
0.26917332 0.28623617 0.63976073
0.28139776 0.29138649 0.63735205
0.28868213 0.28771824 0.6367861
0.29866567 0.28857288 0.63525152
0.30810058 0.28896287 0.6338551
0.31459114 0.28957856 0.63284963
-0.12345549 0.30580172 0.69325227
-0.11406844 0.30442068 0.69209123
-0.10412435 0.30403596 0.69072217
-0.096739866 0.30428773 0.68963617
-0.08268708 0.30594504 0.68741733
-0.075126223 0.30350995 0.6866529
-0.065421015 0.30341122 0.68528098
-0.055200648 0.30309054 0.68386424
-0.045255389 0.30275881 0.68248814
-0.035520162 0.30268815 0.68110836
-0.025530435 0.30252486 0.67970419
-0.015456664 0.30217919 0.67831153
-0.0059766169 0.30209193 0.6769703
0.0041026687 0.30149707 0.67560905
0.014221613 0.30080745 0.67425436
0.023238719 0.30068356 0.67298388
0.030991789 0.30023676 0.67193538
0.26801404 0.29772341 0.63844383
0.27803409 0.29817894 0.6369555
0.30960733 0.2978034 0.6324994
0.31495625 0.29772425 0.63174647
0.1482375 -0.11931317 0.709346
0.1564938 -0.1206566 0.70834148
0.16452923 -0.11904381 0.7069869
0.14055361 -0.11097824 0.70936674
0.14699754 -0.1131034 0.70872164
0.15827483 -0.11494274 0.70735002
0.16738246 -0.11331002 0.70583999
0.17256644 -0.11240099 0.70498306
0.13965741 -0.1034468 0.70852274
0.14687303 -0.10292835 0.70742637
0.15820307 -0.10182529 0.70566761
0.16692603 -0.10351098 0.70464063
0.17235938 -0.10629085 0.70422417
0.13972217 -0.097448304 0.70773947
0.14680927 -0.094438091 0.7063399
0.1565063 -0.093399689 0.70482248
0.16534236 -0.094853371 0.70374942
0.14840201 -0.0877278 0.70524681
0.15358607 -0.087623939 0.70449376
-0.3705081 -0.05166918 0.77462667
-0.36555541 -0.055345315 0.77439439
-0.38117823 -0.04303528 0.77503484
-0.37244406 -0.043558616 0.77385628
-0.36471623 -0.044072028 0.77282
-0.37373322 -0.034710344 0.77289844
-0.36477143 -0.035883591 0.77177125
-0.35871857 -0.038129169 0.77119744
-0.37251016 -0.028660674 0.77194333
-0.3674036 -0.028077722 0.77113956
-0.03781382 -0.031042874 0.7244997
-0.03320143 -0.028069383 0.72345787
-0.37121469 -0.012729488 0.76970273
-0.36719996 -0.014080986 0.76930439
-0.030550327 -0.022715479 0.7223888
0.074469924 -0.019136405 0.70694375
-0.37344727 -0.0069992291 0.7692818
0.009124211 -0.00971705 0.71505117
0.018266322 -0.0098778512 0.71376759
0.028296158 -0.010439888 0.7124092
0.037806019 -0.01160448 0.71120268
0.047061242 -0.012148888 0.70995253
0.057025336 -0.012153574 0.7085315
0.066745453 -0.012967883 0.70724982
0.076242112 -0.013131929 0.70591611
0.082871012 -0.0094462782 0.70449483
0.0001394893 -0.00094421045 0.71520096
0.0079344604 -0.0029239713 0.71434432
0.017832261 -0.0029265641 0.71293259
0.027622724 -0.0030185643 0.71154767
0.037490636 -0.0029735446 0.71013397
0.047156837 -0.0031998735 0.7087841
0.057038013 -0.0032384268 0.70737928
0.066740319 -0.0035815174 0.70603937
0.07690756 -0.0037339712 0.7046085
0.082706802 0.0010416268 0.70316488
0.00053644786 0.0076566655 0.71403456
0.0080914106 0.0078222696 0.71293527
0.017759332 0.0076036705 0.71158415
0.027559483 0.0075300848 0.71019548
0.03743371 0.0075820275 0.70877999
0.046487294 0.0063331379 0.70764953
0.057505317 0.0063688839 0.70607293
0.066076741 0.0065511442 0.70482653
0.076906547 0.0064174067 0.70329875
0.082520336 0.010683335 0.70194733
-5.0833449e-05 0.017563563 0.7128399
0.008019425 0.01765391 0.7116769
0.017838357 0.017578892 0.71028572
0.027538531 0.017386848 0.70892656
0.036826018 0.016161337 0.70775962
0.045089807 0.01561998 0.70665056
0.059791274 0.014397766 0.70471078
0.065809764 0.016381999 0.70359612
0.077226393 0.016690474 0.70192748
-0.39360878 0.036729485 0.76651561
-0.38979957 0.035383895 0.76614577
0.00069402577 0.027047601 0.71150982
0.0080047315 0.027491584 0.71040952
0.017804291 0.027407596 0.70902228
0.025465747 0.025676718 0.70815259
0.035081122 0.023019133 0.7071237
0.048904598 0.029409366 0.70432687
0.055486575 0.029544324 0.70337045
0.067494921 0.02911143 0.70171309
0.076405734 0.026453312 0.7007848
-0.4040159 0.044883553 0.76694822
-0.39508829 0.043398611 0.7658661
-0.38876826 0.041413557 0.76522058
0.0022371991 0.034817804 0.71028703
0.0079941358 0.037182171 0.70916057
0.017300453 0.036823981 0.70787913
0.026384819 0.037282784 0.70652384
0.038520977 0.035955925 0.70496356
0.046313364 0.034223754 0.7040754
0.055849988 0.033200584 0.70284683
0.066454761 0.033578139 0.70128506
0.074930921 0.03289089 0.70016444
-0.40379882 0.053567968 0.7657966
-0.39451054 0.056370281 0.76410985
-0.38780591 0.055579487 0.76325536
-0.36799932 0.054823317 0.76052713
-0.34783137 0.05522462 0.75759792
0.0072511588 0.042483568 0.70858252
-0.40214807 0.061240893 0.76457101
-0.39259648 0.063950785 0.76285863
-0.38922668 0.062460564 0.76257014
-0.069082953 0.061616089 0.71700424
-0.061858799 0.059480987 0.71624911
-0.053632453 0.059855193 0.71502715
-0.046739962 0.061385699 0.71384633
0.13361183 0.057291742 0.68864381
-0.39808324 0.072301753 0.76256377
-0.38912165 0.070026956 0.7615788
-0.069758274 0.062936068 0.71693027
-0.061905615 0.066751882 0.71531755
-0.052336812 0.067285508 0.71388352
-0.044765525 0.067782067 0.71273923
0.082827792 0.065777615 0.69479418
0.10089633 0.065076791 0.69230676
0.11648239 0.067845963 0.68972582
0.13369527 0.063778684 0.68779486
-0.059063531 0.074080676 0.71396637
-0.052240029 0.074861892 0.71289206
-0.046264019 0.07437662 0.71210212
0.084907144 0.074333742 0.69339347
0.094908684 0.075692289 0.69179124
0.10277883 0.076289333 0.69059134
0.11471947 0.074765362 0.68908441
0.12216331 0.075387187 0.68794221
0.13532457 0.075849444 0.68600482
0.14315751 0.075716585 0.68490446
0.15268666 0.075327456 0.68359512
0.08699064 0.085526042 0.69165194
0.093964957 0.084224068 0.69082493
0.10357483 0.087319456 0.68905449
0.11359296 0.083553359 0.68811119
0.1239427 0.082633391 0.68675327
0.1337509 0.084044397 0.68517184
0.14285259 0.083286226 0.68397123
0.1526292 0.083107039 0.68259943
0.15786949 0.084969081 0.68161154
0.028664943 0.096462987 0.69856197
0.03175173 0.096897513 0.69806552
0.08517348 0.094851613 0.69070792
0.093862861 0.093971997 0.68958163
0.10363557 0.093797617 0.68820989
0.11341047 0.093620151 0.68683821
0.1231339 0.094084539 0.68539107
0.13291687 0.093259864 0.6841017
0.1427981 0.093425483 0.68267059
0.15285775 0.093237817 0.68125963
0.16100855 0.093486704 0.68006462
0.017604386 0.10767017 0.69869387
0.025655119 0.10588716 0.69777536
0.034028966 0.10609224 0.69655418
0.045186304 0.10820889 0.69468921
0.054509263 0.10841863 0.69333208
0.064961754 0.10683984 0.6920445
0.073247865 0.10410932 0.69121468
0.084147803 0.10378427 0.68970156
0.093683459 0.10378514 0.68834096
0.10345349 0.10359291 0.6869719
0.11322743 0.10342664 0.68559891
0.12300473 0.10325141 0.68422663
0.13299783 0.10321836 0.68280512
0.14247543 0.10299555 0.68148178
0.15287587 0.10296077 0.68000239
0.15976582 0.10207033 0.67913431
-0.0017151431 0.11924486 0.6999566
0.0070929853 0.1175274 0.69892156
0.015624316 0.11574247 0.69793475
0.025312409 0.11539371 0.69659752
0.034790881 0.11501593 0.69529396
0.044640526 0.11456086 0.69394743
0.054403022 0.11430541 0.69258761
0.063628063 0.11482062 0.69120497
0.074111722 0.11593435 0.68956554
0.084042557 0.11446672 0.68833816
0.093385406 0.11394869 0.68707204
0.10342402 0.11379848 0.68565923
0.11301742 0.1137595 0.68429554
0.12296186 0.11337311 0.68292665
0.1331204 0.11344197 0.68146843
0.14282352 0.11324412 0.68010962
0.15256311 0.11306998 0.67874253
0.16140205 0.11275474 0.67752218
0.1727901 0.11559445 0.67553097
0.17815785 0.11598766 0.67471445
0.18858528 0.11579883 0.67325115
0.20290653 0.11422089 0.67141157
0.20906325 0.11464337 0.67047864
0.24295573 0.1114359 0.66605711
0.24923004 0.11273902 0.66499376
0.25638711 0.1132633 0.66390502
-0.021455381 0.13006431 0.7013768
-0.013911004 0.12839347 0.70051605
-0.0044966359 0.12574379 0.69951481
0.0055944263 0.12522465 0.69814211
0.01566501 0.12554076 0.69666457
0.025504755 0.12563394 0.69524872
0.035159592 0.12462562 0.69400138
0.044604257 0.1242698 0.69269979
0.054287795 0.12406314 0.69134492
0.064047299 0.12389384 0.68997437
0.073786758 0.12374781 0.6886037
0.083530374 0.12398214 0.68718332
0.09399198 0.12368837 0.68572867
0.10340798 0.12335362 0.68442851
0.11318697 0.12359002 0.68300289
0.12269111 0.12287248 0.68173951
0.13290557 0.12335099 0.68022043
0.14302102 0.12322068 0.67879409
0.15276134 0.12265678 0.67747718
0.1622514 0.12207091 0.67619884
0.17175959 0.12213572 0.67483395
0.18159342 0.12217157 0.67342633
0.19077596 0.12266231 0.67205298
0.20150413 0.12172858 0.67064285
0.21068762 0.12129316 0.66938883
0.22047189 0.12268399 0.66781342
0.23033738 0.12284625 0.66638494
0.24122319 0.12145342 0.66501164
0.25056306 0.12035444 0.66382092
0.25993273 0.12114421 0.66238225
0.26957056 0.12141019 0.66097295
0.28030837 0.12083607 0.65951502
0.28690955 0.12198372 0.65842515
0.29848546 0.12379515 0.65653986
-0.022397019 0.13580333 0.70077062
-0.014586846 0.13564251 0.69967705
-0.0046625123 0.1353808 0.69829494
0.005791001 0.13514981 0.69683331
0.015860625 0.13538466 0.69536638
0.024771791 0.13514936 0.69412541
0.034999203 0.13468941 0.69272566
0.044529043 0.13453396 0.69138604
0.054262914 0.13434793 0.69002134
0.063959584 0.1342102 0.68865567
0.074201576 0.13413647 0.68720394
0.083935611 0.13360752 0.68588346
0.09382049 0.13358745 0.68447578
0.10353789 0.13343552 0.68310899
0.11323927 0.13319924 0.68175542
0.12297165 0.13306399 0.68038434
0.13251436 0.13302365 0.67902815
0.14292616 0.1327246 0.67758125
0.1526877 0.13245673 0.6762231
0.16195194 0.13243441 0.67490429
0.17180228 0.13228631 0.67351806
0.18206604 0.13211705 0.67207557
0.19178991 0.13185123 0.67072254
0.20156372 0.13173212 0.66934353
0.21127672 0.13154662 0.66798168
0.22101627 0.13137184 0.66661471
0.23073746 0.13118953 0.66525131
0.24034871 0.13097967 0.66390717
0.25040233 0.13097908 0.6624729
0.25971028 0.1305965 0.66119426
0.26966637 0.1306431 0.65976787
0.27944085 0.12963921 0.65850282
0.2891019 0.13002025 0.65707535
0.29939213 0.12956494 0.65566599
0.30926526 0.12964472 0.65424711
0.31765664 0.12919419 0.653108
0.32866639 0.13218093 0.6511519
0.33570215 0.13160673 0.65022218
-0.041360836 0.150041 0.70163894
-0.033150237 0.1488907 0.700616
-0.024542371 0.14535883 0.69984365
-0.014577148 0.14532278 0.69842654
-0.0044866442 0.1455504 0.69695759
0.0059794048 0.1453151 0.69549477
0.014148774 0.14468181 0.69441098
0.036190417 0.14494693 0.69123203
0.044302963 0.14471538 0.69010454
0.054113887 0.14407739 0.6887871
0.063827336 0.14391065 0.68742281
0.074282266 0.14379773 0.68594581
0.083940186 0.14407404 0.68453223
0.093637906 0.14392282 0.68316823
0.10334551 0.14378083 0.6818015
0.11304286 0.14356123 0.68044639
0.12305856 0.1434858 0.67902714
0.13308148 0.14304341 0.67765421
0.14304265 0.14267853 0.6762802
0.15243241 0.14276695 0.67492914
0.16162036 0.14234808 0.67367232
0.17155762 0.14193135 0.67230839
0.18185738 0.14172137 0.67086601
0.19152847 0.14161035 0.66950053
0.20124631 0.14143139 0.66813719
0.21098216 0.14126141 0.66677016
0.22076827 0.14111298 0.66539311
0.23049822 0.1409359 0.66402775
0.24018109 0.14081396 0.66266203
0.25045693 0.14052175 0.66123372
0.26016003 0.14039409 0.65986586
0.26998982 0.14020656 0.65848768
0.27959314 0.13962731 0.65719223
0.2894699 0.13951051 0.6557982
0.29962558 0.13904059 0.65441
0.30849192 0.13891548 0.65316111
0.31500098 0.13611397 0.65259397
0.33010429 0.13546789 0.65052259
0.33603102 0.13612074 0.64959282
-0.051289961 0.15872115 0.70193547
-0.043141309 0.15676045 0.7010259
-0.034628313 0.15564577 0.69995522
-0.024328012 0.15540963 0.69851613
-0.014582898 0.15561624 0.69709915
-0.0051645953 0.15527388 0.69579959
0.0039910814 0.15178086 0.69494414
0.037563369 0.1523727 0.69007796
0.044564176 0.15457083 0.68879557
0.054083068 0.15385018 0.68753046
0.063680641 0.15361622 0.68619132
0.073962048 0.15351543 0.6847375
0.083808407 0.15410988 0.68325603
0.093458869 0.1541855 0.68186945
0.10356604 0.15373468 0.68048567
0.11312846 0.15377305 0.67911643
0.12312929 0.15356396 0.67771661
0.13238294 0.15145047 0.67666912
0.14359657 0.15264623 0.67491496
0.15276442 0.15299101 0.67356253
0.16253193 0.15239136 0.67224634
0.17164439 0.15151975 0.67105871
0.18155468 0.1514903 0.66964859
0.19129175 0.15132962 0.66828018
0.20083265 0.15136278 0.66691464
0.21073028 0.15098 0.66555196
0.22051875 0.15083875 0.66417372
0.23076119 0.15069935 0.6627304
0.2403629 0.1504292 0.66139537
0.25025004 0.15026399 0.66000611
0.25997549 0.15009123 0.65864086
0.26972815 0.14992742 0.65727061
0.27950123 0.14976816 0.65589678
0.28921297 0.14978004 0.65450972
0.29964927 0.1494375 0.65306497
0.30592838 0.14959875 0.65214831
-0.053016238 0.16608039 0.70123214
-0.044783555 0.1653818 0.70014769
-0.034608092 0.16532169 0.69870371
-0.024470923 0.16560501 0.69722092
-0.014743567 0.16533802 0.6958676
-0.0077936412 0.16242866 0.69525146
0.046942633 0.16356027 0.68729621
0.054304007 0.16411951 0.6861738
0.064026721 0.16382419 0.68482476
0.073883958 0.16373056 0.68343049
0.083570167 0.16362639 0.68206203
0.093289137 0.1638419 0.68064761
0.10353303 0.16334215 0.6792506
0.1132814 0.1634431 0.67784679
0.12294861 0.16325875 0.67649132
0.12918952 0.16355778 0.67556238
0.14608359 0.16105808 0.67347467
0.15297145 0.16238861 0.67232025
0.162554 0.16228566 0.67096645
0.17152865 0.16194265 0.66973025
0.18144418 0.16188338 0.66832328
0.19146019 0.1614231 0.66695368
0.20145489 0.16163747 0.6655001
0.21091095 0.16125274 0.66420066
0.22057493 0.1610581 0.66284698
0.23062733 0.16081107 0.66144466
0.24019298 0.16076748 0.66008562
0.24986362 0.16057426 0.6587308
0.2602233 0.16039026 0.65727657
0.27011901 0.16029277 0.65587735
0.27922073 0.1601415 0.65459836
0.2889668 0.15997574 0.65322924
0.29902288 0.15996312 0.65179616
0.30746183 0.15954944 0.65064555
-0.063309111 0.17640844 0.70136791
-0.054440901 0.17566845 0.70019811
-0.044438552 0.1752204 0.69882894
-0.0345167 0.17518957 0.69741738
-0.024424477 0.17576171 0.69590372
-0.016614238 0.17441526 0.69496316
0.055974692 0.17340526 0.68473721
0.064059615 0.17412917 0.68349034
0.073776774 0.17384081 0.68214118
0.084208734 0.1731607 0.68074065
0.093120851 0.17343849 0.67943329
0.1034321 0.17330842 0.67797899
0.11269839 0.17183356 0.67684728
0.12307913 0.1726242 0.67526424
0.12906349 0.17203982 0.67448586
0.15436885 0.16985595 0.67115736
0.16253212 0.17199071 0.66971719
0.17171215 0.17229868 0.66836774
0.1817773 0.1719512 0.66697657
0.19146559 0.1715893 0.66564113
0.20135409 0.17147669 0.66424489
0.21104433 0.17131992 0.66288257
0.22074413 0.17128761 0.66150284
0.23055992 0.17080325 0.66016495
0.24036294 0.17087568 0.65875697
0.24995203 0.17021452 0.65747422
0.25990596 0.17029291 0.65604401
0.26976866 0.16996241 0.65467954
0.27934217 0.16992585 0.65331841
0.28922001 0.16973656 0.65193355
0.29919505 0.16958651 0.6505298
0.30709243 0.16904433 0.64947307
-0.10268494 0.18593761 0.70575601
-0.096493207 0.18700244 0.70473522
-0.079856522 0.18931666 0.70206302
-0.073820777 0.18773767 0.7014057
-0.064186119 0.18589354 0.70026904
-0.054205012 0.18571709 0.69886786
-0.044259448 0.18538888 0.69749123
-0.034146704 0.18548529 0.69603604
-0.024823219 0.18522182 0.69473988
-0.016243575 0.18575892 0.69344652
0.057582624 0.17989749 0.6836701
0.065313563 0.17975749 0.68258518
0.072829016 0.18084951 0.68137205
0.086458251 0.18066736 0.67945105
0.092410274 0.18146056 0.67849952
0.10138539 0.17942746 0.67748141
0.12210556 0.18040965 0.67439854
0.16266018 0.18245941 0.66834813
0.17175847 0.18221441 0.66708165
0.18060686 0.1817085 0.66588455
0.19251026 0.17881495 0.66455966
0.2012662 0.17991345 0.66316873
0.21099406 0.18117869 0.66161758
0.22049481 0.18147205 0.66022426
0.23056942 0.18066575 0.65889096
0.24008077 0.18096219 0.65749568
0.24996273 0.18031381 0.65616947
0.25991502 0.17990269 0.65480268
0.26961821 0.17974831 0.65343827
0.27935633 0.17944734 0.65208775
0.2888087 0.17949815 0.65073264
0.29909781 0.17915913 0.64930838
0.30583659 0.18080422 0.64813471
-0.11001239 0.19967087 0.70502931
-0.10307539 0.19597869 0.70451599
-0.0949426 0.19582559 0.70337546
-0.083374649 0.19693525 0.7015819
-0.074478656 0.19558698 0.70048666
-0.06420818 0.19559644 0.69902021
-0.054209836 0.19547133 0.6976099
-0.043987069 0.19538975 0.69616193
-0.034397796 0.19556035 0.69477183
-0.027716242 0.19529995 0.69385213
-0.014759395 0.19154957 0.69248754
0.16365238 0.1910433 0.66709888
0.17137977 0.1915493 0.66593117
0.18001375 0.19211884 0.66462582
0.19499353 0.19255297 0.66243267
0.19935746 0.19289713 0.66176564
0.2121425 0.19106042 0.6601786
0.22006716 0.1910291 0.65905207
0.23091289 0.19044136 0.65758049
0.24059869 0.18970467 0.65629375
0.25009659 0.19059858 0.6548233
0.25970277 0.18985879 0.65354824
0.26972851 0.18989612 0.65211308
0.27953023 0.18977979 0.65072966
0.28904873 0.18977533 0.64937222
0.29916021 0.1893273 0.64798743
0.30658773 0.18931511 0.64692932
-0.11928979 0.20833921 0.70523435
-0.11311243 0.20699221 0.70452684
-0.10415421 0.20539291 0.70345509
-0.09541598 0.20519754 0.70223367
-0.082028665 0.20371461 0.70051509
-0.07465025 0.20538071 0.69924742
-0.06436532 0.205226 0.69779998
-0.054509584 0.20545691 0.6963641
-0.045037337 0.20558184 0.69499654
-0.034812801 0.2052644 0.69357878
-0.025103176 0.20534615 0.69218302
-0.015641253 0.20650533 0.69068342
-0.005124093 0.20642848 0.68919295
0.0046253349 0.20760724 0.68764985
0.014764097 0.20693935 0.68628955
0.02100913 0.20803092 0.68525773
0.16411035 0.2010618 0.66574079
0.17119119 0.20182814 0.66463172
0.18152994 0.20162272 0.66318315
0.18991487 0.1986701 0.66236788
0.20212668 0.19922265 0.66055435
0.21048112 0.20104478 0.6591273
0.22001387 0.20088542 0.6577878
0.2301434 0.20084323 0.65634805
0.23889484 0.19962189 0.65525711
0.24914975 0.19941056 0.65382129
0.26037669 0.19701928 0.65252811
0.26995784 0.19941407 0.65085214
0.2790823 0.19997281 0.64947826
0.28879282 0.19969018 0.64812934
0.29877582 0.19861272 0.64684409
0.30549172 0.19660951 0.64614445
-0.12152397 0.21661849 0.70448476
-0.1142059 0.21543974 0.70359278
-0.10419774 0.2157632 0.70212317
-0.094572686 0.21543422 0.70079243
-0.084617577 0.21522595 0.69939899
-0.074866295 0.21520469 0.69801056
-0.06509462 0.21511815 0.69662756
-0.054913528 0.21514128 0.69517207
-0.045125835 0.21491639 0.69380468
-0.035319988 0.21516062 0.69237417
-0.025260473 0.21476609 0.69098991
-0.01531211 0.21478559 0.68956804
-0.0055442164 0.21468766 0.68818712
0.0042104358 0.21438412 0.68683457
0.015236687 0.21384512 0.68533105
0.021747269 0.21471222 0.68429029
0.16521369 0.21130167 0.66426206
0.17166664 0.21060157 0.66343176
0.17984138 0.21094595 0.66222101
0.18847181 0.20726079 0.66146523
0.21205781 0.20884459 0.65789586
0.21967512 0.20843422 0.65686208
0.23067614 0.20971397 0.65512741
0.23964643 0.20870413 0.65397793
0.24792562 0.20900472 0.65275794
0.26188067 0.2078706 0.65091336
0.27155018 0.20737232 0.64959806
0.2789363 0.20965573 0.64824963
0.28658417 0.20905724 0.64723575
0.29861426 0.20655903 0.64584184
-0.13201189 0.22566375 0.7048139
-0.12414248 0.22573288 0.70368218
-0.11427516 0.22518042 0.70234573
-0.10465626 0.22552356 0.70092916
-0.094981171 0.22544494 0.69955897
-0.085018724 0.22485264 0.69821405
-0.074779384 0.22533567 0.69669086
-0.06491027 0.22515818 0.69530571
-0.055015966 0.22484328 0.69393474
-0.045175686 0.22456141 0.69256723
-0.035165355 0.22503783 0.69107753
-0.025627283 0.22427365 0.68981534
-0.01443058 0.22323868 0.68835151
-0.0063732541 0.22378984 0.68713087
0.0021368202 0.22123562 0.68624634
0.01629526 0.21942794 0.68445963
0.020160727 0.21935794 0.68391716
0.17388535 0.2185134 0.6620943
0.177333 0.21780455 0.66169387
0.21407825 0.21584642 0.65670413
0.23239602 0.21790631 0.65382493
0.2359359 0.21803614 0.65330315
0.28043544 0.2146448 0.64739197
0.28878725 0.21578632 0.64605314
-0.13197106 0.23956248 0.70301455
-0.12400774 0.23573673 0.70237213
-0.11402728 0.23589839 0.70092732
-0.10482869 0.23574471 0.69963485
-0.095219225 0.23550147 0.69829524
-0.085057154 0.23504858 0.69690382
-0.074655771 0.23512587 0.69540989
-0.064744882 0.23518431 0.69398838
-0.055021305 0.23508427 0.69261402
-0.045091037 0.23468733 0.69124848
-0.035031848 0.23452508 0.6898343
-0.026700098 0.23436724 0.68866599
-0.014312257 0.23475654 0.6868484
-0.0079982057 0.23273923 0.68620789
0.005730696 0.2338396 0.68410718
-0.14545012 0.25000703 0.70358986
-0.13366039 0.24611288 0.70241034
-0.12440404 0.24573079 0.70113909
-0.11434592 0.24577744 0.69969803
-0.10434873 0.24566469 0.69828629
-0.094756745 0.24529627 0.69696534
-0.085298277 0.24494256 0.69566154
-0.075180605 0.24482581 0.69423312
-0.065649644 0.24469949 0.69288969
-0.055204812 0.24497968 0.69136333
-0.044851445 0.24461637 0.68993306
-0.035173353 0.2444368 0.68857551
-0.028278882 0.24413441 0.68763089
-0.018223004 0.24073717 0.6866346
-0.15150227 0.25685155 0.70357013
-0.14403968 0.25608429 0.70260447
-0.13392849 0.25577199 0.70120215
-0.12445964 0.25586182 0.69983965
-0.1143804 0.25570178 0.69842237
-0.10436264 0.25528219 0.69704723
-0.095042333 0.25531012 0.69571394
-0.085211337 0.25472814 0.69438642
-0.07500869 0.2551651 0.69287443
-0.064885706 0.25499851 0.69145167
-0.054951407 0.25528356 0.68999761
-0.045009639 0.25493962 0.68862361
-0.036138888 0.25416961 0.68745738
-0.028526837 0.25089648 0.68679374
-0.17380425 0.26882896 0.70520639
-0.16256645 0.26705617 0.70383185
-0.15409601 0.26578042 0.70278805
-0.1442778 0.26563787 0.70140564
-0.13367586 0.26606426 0.69983804
-0.12397306 0.26603296 0.69845784
-0.11434587 0.26579323 0.69711524
-0.10422105 0.2653842 0.69572347
-0.094842009 0.26528215 0.69439852
-0.085338488 0.26496217 0.693084
-0.074947648 0.26528865 0.69155937
-0.065236725 0.26507753 0.69020122
-0.055429559 0.26475129 0.68884408
-0.045451969 0.26423067 0.68748778
-0.037470151 0.26213923 0.68661892
-0.17401668 0.28060254 0.70371747
-0.1635793 0.27591425 0.70283335
-0.15418312 0.27607524 0.70147204
-0.14440604 0.2758413 0.70010728
-0.13417433 0.27585515 0.69864577
-0.12422946 0.27585986 0.69722635
-0.11461634 0.27576953 0.69586647
-0.10477813 0.27551755 0.69449538
-0.094909377 0.27520317 0.69312793
-0.085214235 0.2750462 0.69176501
-0.074949093 0.2748152 0.69033033
-0.065465659 0.27455088 0.68901139
-0.058348551 0.27256605 0.68825215
-0.045926556 0.27050221 0.68674624
-0.17980255 0.28833586 0.70354503
-0.17389151 0.28673834 0.70290786
-0.16457149 0.28570765 0.70171118
-0.15399127 0.28582948 0.70018595
-0.14414059 0.2855539 0.69881618
-0.13445531 0.28529119 0.69746828
-0.12437189 0.28513178 0.69605023
-0.11486311 0.2854121 0.69465744
-0.10421412 0.28369373 0.69335985
-0.094732977 0.2849932 0.69183952
-0.085187234 0.28466436 0.69052005
-0.075220823 0.28486779 0.68907189
-0.0674145 0.28286693 0.68821639
-0.18216512 0.29637262 0.7028451
-0.17407241 0.29540652 0.70181513
-0.16420621 0.2954767 0.7003985
-0.15413977 0.29557043 0.69895023
-0.14417633 0.29519311 0.69757742
-0.13477676 0.29528043 0.69622511
-0.12456859 0.29511538 0.69479007
-0.11503847 0.29411831 0.69355905
-0.1093155 0.29215798 0.69299549
-0.094511308 0.29467091 0.69055915
-0.085103132 0.29434901 0.6892584
-0.078255087 0.29195464 0.68859035
-0.19015348 0.30835751 0.70243824
-0.18427746 0.30621886 0.70187587
-0.17454247 0.30565536 0.70055974
-0.16413485 0.30595195 0.6990366
-0.154342 0.3056508 0.69767833
-0.14447924 0.30563024 0.69627386
-0.13468225 0.30497962 0.69496006
-0.12584718 0.30242804 0.69402879
-0.09277916 0.30382827 0.68913037
-0.085590012 0.30356085 0.6881392
-0.19020067 0.31097382 0.70210737
-0.18440795 0.31243864 0.70109195
-0.17446637 0.31202376 0.69972712
-0.16526659 0.31188062 0.69843304
0.14403719 -0.090875193 0.70627564
-0.37268087 -0.061352495 0.77618617
-0.36723685 -0.061598532 0.77544123
-0.37280691 -0.056059733 0.77552116
-0.36866236 -0.05501524 0.77479506
-0.37398568 -0.049672861 0.77486521
-0.36353034 -0.032013189 0.77109474
-0.37182438 -0.023272734 0.77115023
-0.3668566 -0.02682557 0.77089989
0.1376918 -0.03143822 0.69951135
0.14033599 -0.031486105 0.69914025
-0.37357062 -0.015646625 0.77041531
-0.36858538 -0.016522557 0.76981711
0.067522556 -0.020648239 0.70813006
0.073337518 -0.021026868 0.70734924
0.1370068 -0.030099332 0.69943631
0.13963903 -0.029483754 0.69898134
-0.37467131 -0.0086558815 0.76967025
-0.36936614 -0.010077284 0.76909679
-0.00075500994 -0.009333835 0.71641123
0.0035974942 -0.0099521689 0.71586996
0.014720209 -0.010809331 0.71439373
0.053522881 -0.017975703 0.70978254
0.066987723 -0.018775567 0.70796466
0.24509589 -0.01414911 0.68195707
0.24973178 -0.014706817 0.68136764
0.29334062 -0.0143595 0.67510116
0.30083251 -0.014495166 0.67404979
-0.0016373994 -0.0055198511 0.71604496
0.08893232 -0.0026990969 0.70275939
0.093173802 -0.0033728366 0.70224118
0.11646014 -0.0023132577 0.69878221
0.12117255 -0.0020722891 0.69807881
0.15649454 -0.002946143 0.69315219
0.16030678 -0.0039627342 0.69273949
0.19490887 -0.0042329826 0.68783766
0.20234048 -0.0055244896 0.68694407
0.20985816 -0.0053225122 0.68584543
0.22234063 -0.0061483765 0.68417114
0.23157619 -0.0054512732 0.68276352
0.24241093 -0.0064467024 0.68134624
0.2513752 -0.007809151 0.68024307
0.26124218 -0.0079807825 0.67885751
0.27090046 -0.0084907701 0.67754537
0.28044796 -0.0086254664 0.67620063
0.289913 -0.0083666006 0.67481685
0.30011272 -0.0091312435 0.6734603
-0.38256598 0.015604755 0.76766604
-0.37977454 0.016428966 0.76716143
0.086812034 0.0049364194 0.70207661
0.093088888 0.0040325788 0.7012977
0.11598574 0.0033232002 0.69812256
0.12048696 0.0034665174 0.6974619
0.15502414 0.0034990897 0.69253027
0.16087273 0.0029924479 0.69176126
0.17512064 0.001769633 0.68988627
0.18078588 0.0035412062 0.68884945
0.19305857 0.0012466465 0.68739456
0.20199406 0.0021327166 0.68600535
0.211615 0.0018260435 0.68467236
0.2216078 0.0017119732 0.68326139
0.23134293 0.0015212712 0.6818971
0.24128556 0.0013098703 0.68050587
0.25133207 0.0011998368 0.67908674
0.26112935 0.0011762886 0.677692
0.271052 0.00097189727 0.67630267
0.28062719 0.00076389406 0.67496347
0.28988585 0.00027402304 0.67370576
0.30006769 -5.0579663e-05 0.67229497
0.30566117 -0.0013177623 0.67166048
-0.41159734 0.027213383 0.77030993
-0.40631127 0.026865344 0.76960075
-0.39588335 0.026724946 0.76813108
-0.38600865 0.023947993 0.76708061
-0.37718371 0.022887036 0.76595849
-0.37007537 0.025880735 0.76455796
-0.36096516 0.026671555 0.76315624
0.087210745 0.013360413 0.70093274
0.093848012 0.013879147 0.69991881
0.10262386 0.014929819 0.69853121
0.1139729 0.013226239 0.69713181
0.12307455 0.016218128 0.69544727
0.13381806 0.015142608 0.69405323
0.14315376 0.014135448 0.69285131
0.15269341 0.01281135 0.69166112
0.1608441 0.012474208 0.6905418
0.18655236 0.0074715242 0.68751955
0.19484188 0.011964109 0.68575716
0.20126373 0.012268612 0.68480164
0.21331227 0.0078279776 0.68365574
0.22158712 0.0097902715 0.68222189
0.23214689 0.0076407292 0.68099278
0.24068616 0.0086812731 0.67964017
0.25072971 0.01038733 0.6779871
0.25971532 0.0096371695 0.67680192
0.27045423 0.0089291753 0.67536122
0.27930346 0.008016767 0.67421639
0.28759837 0.006820838 0.67318732
0.29933977 0.0071977749 0.67146355
-0.41235521 0.031386226 0.7698797
-0.40598404 0.03360495 0.76868439
-0.39627278 0.032349654 0.76746088
-0.38658211 0.032784406 0.76602215
-0.37620246 0.032635454 0.76456052
-0.36697108 0.032253288 0.76329279
-0.35731459 0.032630879 0.76186639
-0.35119307 0.034453504 0.76075786
-0.10398406 0.031303439 0.72589511
0.087549791 0.024160242 0.69949073
0.093747899 0.023823224 0.69864994
0.10364599 0.023709457 0.69725245
0.11354892 0.023488261 0.69586813
0.12234012 0.023691135 0.69458777
0.13434449 0.024102086 0.69282204
0.14259842 0.022949198 0.69179326
0.15251382 0.022753639 0.69040382
0.16059032 0.022870779 0.68923646
0.19226804 0.023647588 0.68461674
0.20307952 0.019331666 0.68363124
0.20745058 0.021242259 0.68276107
0.2444016 0.024331506 0.67709064
0.25046277 0.018031489 0.67703885
-0.41116667 0.042121444 0.76832485
-0.40702105 0.041415051 0.76782453
-0.38622144 0.042430516 0.76472598
-0.37661287 0.042527385 0.76334268
-0.3662225 0.042468589 0.76186788
-0.35661128 0.041902911 0.76056963
-0.34857556 0.041590899 0.75946343
-0.34270716 0.040269017 0.75879675
-0.10852039 0.039455652 0.72549033
-0.10223719 0.037581638 0.72483575
-0.092509434 0.038478158 0.72333217
-0.084924489 0.040651713 0.7219696
-0.0067032026 0.03829664 0.71111369
0.018836522 0.039727066 0.70728534
0.024018779 0.039716814 0.70654726
0.03521172 0.039129928 0.70502609
0.045881014 0.038823612 0.70354348
0.054697249 0.038069487 0.70238298
0.06472256 0.037179511 0.70106751
0.074477166 0.036297888 0.69978958
0.084689364 0.034713667 0.69853705
0.0938503 0.034112021 0.69730771
0.10368293 0.03360543 0.69597018
0.11331707 0.033619732 0.69459391
0.12302566 0.033447471 0.69323105
0.13289407 0.03291709 0.69189149
0.14271247 0.03312118 0.69046438
0.15254408 0.032612707 0.68912733
0.16180374 0.032900088 0.68776917
0.17118491 0.035108536 0.68614578
0.19297072 0.032107998 0.68342483
0.20093247 0.032957524 0.68217927
0.21113013 0.033924609 0.68059963
0.21767287 0.0340406 0.6796512
0.23143375 0.034957126 0.67756963
0.24071595 0.031387787 0.67670596
0.25040135 0.031259693 0.67534065
0.25661752 0.030963799 0.674492
0.27201012 0.032453712 0.67210364
0.29962289 0.033014867 0.66809177
-0.41112539 0.053296342 0.76687694
-0.40882698 0.053717628 0.76649463
-0.39316478 0.052282039 0.76444536
-0.38542494 0.052437596 0.7633211
-0.37648389 0.052356843 0.76205587
-0.36641231 0.05207042 0.76065594
-0.35766676 0.052275091 0.75938177
-0.35038456 0.050032154 0.75863224
-0.10889095 0.044410802 0.72490382
-0.10199153 0.046556141 0.72364265
-0.091984667 0.047355179 0.72211182
-0.082693301 0.047323361 0.72079039
-0.074060433 0.049135808 0.71932483
-0.0098129306 0.049495421 0.71011227
-0.0036208536 0.046975423 0.70955396
0.0051284572 0.045784172 0.7084595
0.014899401 0.045168009 0.70714492
0.024796531 0.044991225 0.70575571
0.034832612 0.0449083 0.70433456
0.044693045 0.044720069 0.70295215
0.054567207 0.044542592 0.70156628
0.064440735 0.044362999 0.70018077
0.074328266 0.044209614 0.69878995
0.084206201 0.044062827 0.69739956
0.094069533 0.043915931 0.69601136
0.10392357 0.043753684 0.69462639
0.11351112 0.043703444 0.69326502
0.1233561 0.043219361 0.6919229
0.13317141 0.043304216 0.69051158
0.14294451 0.042881425 0.68917185
0.15254284 0.04285546 0.68780577
0.1619485 0.042537492 0.6865049
0.17125842 0.042430997 0.68519044
0.18072009 0.04306867 0.68375826
0.19221827 0.042237543 0.68222505
0.20162871 0.041759528 0.68094414
0.21095258 0.041557703 0.67963994
0.22038351 0.042110462 0.67822313
0.22966868 0.042510159 0.6768468
0.24143021 0.042513922 0.67516834
0.25021544 0.041159451 0.67408973
0.25960401 0.042708915 0.67255032
0.26753801 0.041024175 0.67163575
0.27842429 0.04321472 0.66979998
0.29202849 0.040050119 0.66826743
0.29782772 0.039945088 0.66745359
-0.41215849 0.063818954 0.76566654
-0.409289 0.061925378 0.7655015
-0.39177832 0.067372464 0.76230031
-0.38623905 0.062736869 0.76210821
-0.3766734 0.062501028 0.7607739
-0.36727247 0.061895929 0.75951082
-0.35851678 0.059492785 0.75857168
-0.098900266 0.052605126 0.72242105
-0.090907022 0.05449149 0.72103727
-0.082373135 0.056800123 0.71952176
-0.072716147 0.056617666 0.7181676
-0.064064801 0.054937176 0.71715015
-0.056975879 0.055539653 0.71606106
-0.022943752 0.058053851 0.71088129
-0.013973372 0.056166798 0.70984495
-0.0045603234 0.055394024 0.70860171
0.004800335 0.055267252 0.7072826
0.014823576 0.055136614 0.70586944
0.024763063 0.054986198 0.70447075
0.034698743 0.054842189 0.70307183
0.044582725 0.054675054 0.70168328
0.054440547 0.054491997 0.70030046
0.064318188 0.05432957 0.69891214
0.074188344 0.054167535 0.69752491
0.084052242 0.054022796 0.69613636
0.093905121 0.053903271 0.69474602
0.10373864 0.053680431 0.69337183
0.11357467 0.053506859 0.69199091
0.1234054 0.053337306 0.69061029
0.13320917 0.053044096 0.6892494
0.14303368 0.053015932 0.68785137
0.15249279 0.052996021 0.68650436
0.16194202 0.052272767 0.68524963
0.17183807 0.052298147 0.68383449
0.1816957 0.0520324 0.68246239
0.19135165 0.05195136 0.68109524
0.20115608 0.051799614 0.67971599
0.21094267 0.051726874 0.67832911
0.22083044 0.051187243 0.67698812
0.23056157 0.051148392 0.67560476
0.24028558 0.051115662 0.67422169
0.25014511 0.050713785 0.67286688
0.2591098 0.050353244 0.67163438
0.27014512 0.05084601 0.66999644
0.27858812 0.05041407 0.66884762
0.28486004 0.052781526 0.6676473
0.29978737 0.051587459 0.66567171
0.3053526 0.052410439 0.6647715
-0.41281858 0.069921605 0.76497322
-0.40636683 0.073787585 0.76355386
-0.39595836 0.075491324 0.76184911
-0.3871862 0.07234019 0.76100415
-0.37786433 0.071608454 0.75976866
-0.3700676 0.068096325 0.7591095
-0.080591053 0.063328773 0.7184251
-0.07316196 0.065431923 0.71709383
-0.06600368 0.070257336 0.71544987
-0.030646661 0.06877508 0.7105968
-0.023266602 0.065002166 0.71003067
-0.014668118 0.065279916 0.70876813
-0.0044106985 0.065413423 0.70728749
0.004867027 0.065261155 0.70598346
0.014727862 0.065080337 0.70459998
0.02463853 0.064914547 0.70320743
0.034545038 0.064750321 0.70181519
0.044423614 0.064580433 0.70042777
0.054335047 0.06443052 0.69903308
0.064183131 0.064257234 0.69765043
0.074049845 0.064101085 0.69626284
0.084041774 0.063818477 0.69487381
0.093730152 0.063783966 0.69349599
0.10360178 0.063599005 0.69211149
0.11327064 0.06328994 0.69077188
0.12315695 0.063285209 0.68936205
