# .PCD v0.7 - Point Cloud Data file format
VERSION 0.7
FIELDS x y z
SIZE 4 4 4
TYPE F F F
COUNT 1 1 1
WIDTH 457
HEIGHT 1
VIEWPOINT 0 0 0 1 0 0 0
POINTS 457
DATA ascii
-0.14491262 0.12737195 0.76871592
-0.14475131 0.12795638 0.76782322
-0.14435339 0.12930046 0.76577097
-0.144192 0.12988031 0.76488531
-0.1440306 0.13046017 0.76399958
-0.14386921 0.13103998 0.76311398
-0.14348142 0.13236128 0.76109642
-0.14324474 0.13310882 0.75995547
-0.14301825 0.13384569 0.75883061
-0.14278162 0.13458566 0.75770128
-0.14240368 0.13589011 0.75570929
-0.14201568 0.1371901 0.75372446
-0.14131412 0.13982749 0.74969506
-0.14107664 0.14078 0.74823934
-0.14084929 0.14172943 0.74678802
-0.14068794 0.14228207 0.74594414
-0.14032003 0.143547 0.74401253
-0.1401687 0.14409952 0.74316853
-0.13979073 0.14535251 0.74125558
-0.13957405 0.14606042 0.74017489
-0.13935743 0.14676076 0.73910582
-0.13869739 0.14885283 0.73591274
-0.13825344 0.15046325 0.7334528
-0.1381121 0.15099594 0.73263896
-0.13781944 0.15206143 0.73101139
-0.1376681 0.15259424 0.73019767
-0.1375269 0.15312396 0.72938836
-0.13716887 0.15433273 0.7275427
-0.13687615 0.15538612 0.72593373
-0.13659364 0.15642881 0.72434086
-0.13644233 0.15695408 0.7235387
-0.13630097 0.15747464 0.72274351
-0.13615973 0.15799221 0.72195286
-0.1360185 0.15850979 0.7211622
-0.13581184 0.1591782 0.72014189
-0.13546376 0.16035503 0.71834499
-0.13532244 0.16086808 0.7175613
-0.1351811 0.1613811 0.71677768
-0.13503991 0.1618911 0.71599865
-0.13489859 0.16240411 0.71521503
-0.13475731 0.16290954 0.71444303
-0.13420227 0.16493583 0.71134776
-0.13372295 0.16659078 0.70882052
-0.13338488 0.16772816 0.70708394
-0.13304682 0.1688655 0.70534736
-0.13290559 0.16936341 0.70458692
-0.1327744 0.16985363 0.70383799
-0.13230512 0.17146911 0.70137107
-0.13217379 0.17196229 0.70061761
-0.13190132 0.1729383 0.69912684
-0.13177013 0.17342852 0.69837791
-0.13157332 0.1740483 0.69743198
-0.1312452 0.17515376 0.6957441
-0.13091713 0.17625162 0.6940679
-0.13013169 0.17639126 0.69387734
-0.12863654 0.17654532 0.69368625
-0.12431774 0.17660549 0.69372541
-0.12360792 0.17661536 0.69373184
-0.11640991 0.17671563 0.69379711
-0.11204553 0.17690966 0.69363207
-0.11060596 0.1769297 0.69364512
-0.097665519 0.17710994 0.69376242
-0.09411408 0.17702615 0.69399929
-0.079693481 0.17736024 0.69392544
-0.078974679 0.17737025 0.69393194
-0.078255877 0.17738028 0.69393843
-0.076818272 0.17740029 0.69395149
-0.071785673 0.17747039 0.69399714
-0.066812195 0.17727318 0.69445151
-0.051022783 0.17723115 0.69499701
-0.049582191 0.17725122 0.69501007
-0.048861384 0.17726125 0.69501662
-0.037364833 0.17715189 0.69553477
-0.020781413 0.17738286 0.69568515
-0.020060629 0.17739293 0.69569165
-0.019338824 0.17740297 0.6956982
-0.01861801 0.17741299 0.69570476
-0.017897218 0.17742306 0.69571126
-0.017176427 0.17743309 0.69571781
-0.0056394078 0.17759378 0.69582242
-0.0020376258 0.17777717 0.69565046
0.00084511563 0.17781734 0.69567657
0.0030131079 0.17771427 0.69590092
0.028250035 0.17806578 0.69612974
0.028970836 0.17807582 0.6961363
0.041949254 0.17825659 0.69625396
0.05502383 0.17804351 0.69697946
0.070228055 0.17812206 0.69732195
0.078262702 0.17796746 0.69780415
0.084141791 0.17777988 0.69827133
0.1093661 0.17840067 0.6980862
0.1121909 0.17857325 0.69790715
0.11520892 0.17834881 0.69834381
0.11974081 0.17800921 0.69900346
0.13750823 0.1775813 0.70020187
0.13895783 0.17760149 0.70021498
0.13968761 0.17761166 0.7002216
0.14687112 0.17784953 0.70007509
0.1554199 0.1782351 0.69974327
0.1613027 0.17818378 0.7000013
0.1693849 0.17816311 0.70027924
0.1701047 0.17817311 0.70028579
0.17664289 0.1782642 0.70034504
0.17809249 0.17828438 0.70035821
0.17882229 0.17829454 0.70036483
0.20528837 0.17825884 0.70122582
0.20808315 0.17843103 0.70104647
0.21569443 0.17813271 0.70173651
0.22308689 0.17809784 0.70201522
0.22381671 0.17810801 0.70202184
0.2253907 0.1779967 0.70224077
0.22619155 0.17640328 0.70471245
0.22642022 0.17591056 0.70547622
0.22664903 0.17542076 0.70623547
0.22687782 0.17493099 0.70699465
0.2273453 0.17394859 0.70851779
0.22757396 0.17345586 0.7092815
0.22780272 0.17295852 0.71005237
0.22827023 0.17196402 0.71159405
0.22849898 0.17146671 0.71236485
0.22873759 0.17096654 0.71314031
0.22955826 0.16932352 0.71568882
0.22979711 0.16882175 0.71646678
0.23158257 0.1651206 0.72220576
0.2319458 0.16446766 0.72321969
0.23230921 0.16380557 0.72424763
0.23268239 0.16314524 0.72527319
0.23304567 0.16248016 0.72630578
0.23341908 0.16181825 0.72733378
0.23390651 0.16077712 0.7289477
0.23415521 0.16025284 0.72976053
0.236384 0.15573335 0.73676991
0.23727548 0.1542055 0.73914367
0.23752421 0.15366912 0.73997509
0.23778282 0.15312988 0.74081117
0.23803155 0.15259349 0.74164259
0.23829015 0.15205428 0.74247867
0.2395743 0.14956439 0.746342
0.239833 0.14902058 0.74718511
0.24099253 0.14666378 0.75084025
0.24151976 0.14555366 0.75256133
0.24177849 0.14499775 0.75342304
0.2442802 0.13953924 0.76188296
0.24495226 0.13823572 0.76390553
0.24562436 0.13692003 0.76594675
0.24670887 0.13461697 0.76951706
0.24740095 0.1332819 0.77158868
0.24781437 0.13252971 0.77275658
0.24822786 0.13177294 0.7739315
0.24893008 0.13042134 0.77602881
0.2501795 0.1278812 0.77996826
0.25045806 0.12728323 0.78089517
0.25130379 0.12548947 0.78367597
0.25201601 0.12410621 0.78582221
0.25244948 0.12332251 0.7870391
0.25288314 0.12253723 0.78825843
0.25317174 0.12192726 0.78920406
0.25346038 0.12131731 0.79014969
0.25374898 0.12070735 0.79109532
0.25402746 0.12009431 0.79204535
0.25622258 0.11558017 0.7990455
0.2569547 0.11414275 0.80127555
0.257707 0.11269647 0.80351979
0.25875771 0.11061014 0.8067562
0.25921133 0.10977825 0.80804771
0.25950989 0.1091412 0.80903524
0.25980854 0.10849959 0.8100298
0.26010695 0.1078596 0.81102186
0.26041561 0.10721813 0.81201649
0.26210523 0.10403271 0.81696045
0.26257896 0.10318438 0.81827784
0.2633512 0.1016718 0.82062453
0.26382497 0.10081135 0.82196051
0.2641336 0.10015022 0.82298535
0.26445207 0.099486254 0.82401484
0.26522249 0.097700924 0.82678038
0.26601279 0.095901653 0.82956797
0.26712358 0.093674198 0.83302295
0.26744208 0.092997506 0.83407199
0.26824224 0.091169387 0.83690417
0.269373 0.088902868 0.84041977
0.26970151 0.088213295 0.8414889
0.27002999 0.087523133 0.84255892
0.27034843 0.086832263 0.84362972
0.27067691 0.086136326 0.84470862
0.27100533 0.085444652 0.84578097
0.27234149 0.082906671 0.84971976
0.27266997 0.0822035 0.85080975
0.27401605 0.079639018 0.85478956
0.2745299 0.078703113 0.85624266
0.27486843 0.077987351 0.85735232
0.27520686 0.077271 0.85846287
0.2755453 0.07655406 0.85957432
0.2762222 0.075114109 0.86180657
0.2765606 0.074390799 0.86292779
0.27742288 0.072711468 0.86553335
0.27777132 0.071981929 0.86666447
0.27811983 0.07124722 0.86780351
0.27899215 0.069548957 0.87043846
0.27951607 0.068575963 0.87194884
0.28004998 0.067602158 0.87346077
0.28058395 0.066622928 0.87498105
0.28147638 0.064889774 0.87767017
0.28272724 0.06239333 0.88154256
0.28307566 0.06163748 0.88271409
0.28343406 0.060880892 0.88388705
0.28397527 0.059603598 0.88586533
0.28450647 0.05831952 0.88785374
0.2868824 0.053441405 0.89541841
0.28744638 0.05241169 0.89701712
0.28801045 0.051376551 0.89862418
0.28856441 0.050340079 0.90023297
0.28913847 0.049298692 0.90184993
0.28989828 0.0479936 0.90387756
0.29027671 0.047198519 0.90511024
0.29122922 0.045343865 0.90798783
0.29218173 0.043476511 0.91088492
0.29256004 0.042673282 0.91213012
0.2929484 0.041864745 0.91338378
0.29332677 0.041055463 0.91463828
0.29429936 0.039157774 0.91758257
0.29468769 0.038341705 0.9188478
0.29507604 0.037520435 0.92012101
0.29565689 0.036144853 0.92225146
0.29662606 0.033933222 0.92567784
0.29702434 0.033103649 0.9269641
0.29801685 0.031158157 0.92998242
0.29901934 0.029200092 0.93302035
0.30003184 0.027229451 0.93607789
0.30104434 0.025245793 0.93915546
0.30145264 0.024390616 0.94048136
0.30186099 0.023530036 0.94181556
0.30475259 0.017755613 0.95077258
0.30517095 0.016875759 0.9521367
0.30558914 0.015999541 0.9534952
0.30600744 0.015118189 0.95486164
0.30706 0.01305183 0.95806742
0.30747825 0.012163237 0.95944494
0.30833483 0.010374628 0.96221817
0.30875301 0.0094789714 0.96360654
0.30918127 0.0085780919 0.96500325
0.30960953 0.0076763555 0.96640128
0.31003773 0.0067738295 0.9678005
0.31155849 0.0037404001 0.97250587
0.31645143 -0.0055622607 0.98694289
0.31758416 -0.007773377 0.99037343
0.31826866 -0.0090444908 0.99234658
0.3194114 -0.011280619 0.99581587
0.31986964 -0.0122407 0.99730444
0.32032776 -0.013201699 0.99879438
0.32078612 -0.014172688 1.0002997
0.32124394 -0.015121698 1.0017712
0.32193422 -0.0167474 1.0042892
0.32239282 -0.017744824 1.0058351
0.32308203 -0.019329309 1.0082897
0.32355052 -0.020328961 1.0098393
0.3242504 -0.021963462 1.0123711
0.32615739 -0.025617726 1.0180417
0.32712847 -0.027314462 1.0206773
0.3278535 -0.028690092 1.0228122
0.32833159 -0.029698223 1.0243752
0.32881963 -0.030707158 1.0259397
0.33099413 -0.03548751 1.0333481
0.33149189 -0.036501937 1.0349213
0.33197963 -0.037517771 1.0364964
0.33247823 -0.038579687 1.0381426
0.32299709 -0.054836936 1.0628233
0.32189739 -0.054852225 1.0628133
0.32079768 -0.054867513 1.0628033
0.3150273 -0.054897048 1.0626729
0.30621976 -0.055019729 1.062593
0.26526377 -0.055866502 1.062646
0.24927829 -0.054951914 1.0607544
0.2394163 -0.054762371 1.0601629
0.23701504 -0.054743476 1.0600607
0.21543425 -0.055802472 1.0610299
0.21306829 -0.055456199 1.060426
0.15417475 -0.054002486 1.0563993
0.13471815 -0.055356972 1.0578871
0.11246193 -0.059029482 1.0628498
0.085648224 -0.056472801 1.0581062
0.061151206 -0.053133823 1.0522317
0.02187242 -0.053571768 1.0517079
0.019698024 -0.053602062 1.0516882
0.010999925 -0.053020693 1.0505303
0.0045217648 -0.052841969 1.0500585
-0.028069094 -0.05241885 1.0484159
-0.029152058 -0.052490152 1.0484924
-0.037861995 -0.053267039 1.0494204
-0.045468129 -0.053428523 1.0494367
-0.087523594 -0.059590213 1.0576195
-0.15439686 -0.051433124 1.043054
-0.18659917 -0.055394225 1.048157
-0.18860503 -0.054397531 1.0465651
-0.19567484 -0.049148299 1.0382874
-0.19552575 -0.048495091 1.0372887
-0.19536757 -0.047796346 1.0362203
-0.1952094 -0.047097944 1.0351524
-0.19506036 -0.046446212 1.034156
-0.19490227 -0.045748957 1.0330899
-0.19461012 -0.044720516 1.0315192
-0.19432893 -0.043647647 1.0298799
-0.19403687 -0.0426213 1.0283124
-0.19361173 -0.04121957 1.0261725
-0.19318672 -0.039819591 1.0240352
-0.19289482 -0.038796827 1.0224732
-0.19247897 -0.037445121 1.0204098
-0.19206412 -0.036049142 1.0182784
-0.19163842 -0.034700595 1.0162201
-0.19095118 -0.032336771 1.0126104
-0.1903735 -0.029993847 1.0090295
-0.18995358 -0.02834139 1.0065043
-0.18967129 -0.027375214 1.005029
-0.18926609 -0.026037328 1.0029864
-0.18886092 -0.024700604 1.0009457
-0.18845524 -0.023397729 0.99895698
-0.18805976 -0.022086702 0.99695539
-0.18765438 -0.020777352 0.99495673
-0.18713513 -0.019147925 0.99246991
-0.18673958 -0.017855361 0.9904967
-0.18646783 -0.016893983 0.98902839
-0.18592004 -0.014673807 0.9856351
-0.18564409 -0.013415933 0.98371154
-0.18550617 -0.01278761 0.98275071
-0.18523444 -0.011840455 0.98130423
-0.18497275 -0.010894284 0.97985899
-0.18458724 -0.0096346736 0.97793609
-0.18420178 -0.0083764195 0.97601527
-0.18394005 -0.0074423552 0.97458863
-0.18367836 -0.0065091699 0.97316331
-0.18317905 -0.0049502626 0.97078419
-0.18267964 -0.0034021735 0.9684217
-0.18230402 -0.0021732599 0.96654564
-0.18192838 -0.00095016509 0.96467853
-0.18167669 -3.6299229e-05 0.96328259
-0.18130104 0.0011799335 0.96142602
-0.18104933 0.0020873994 0.96003991
-0.18079767 0.0029940382 0.95865506
-0.18040818 0.0044934973 0.95636392
-0.18004252 0.0056908131 0.95453608
-0.17980082 0.0065849274 0.95317018
-0.17943516 0.0077754632 0.95135278
-0.17906953 0.0089647919 0.94953722
-0.17799599 0.01219736 0.94460499
-0.17752616 0.01365611 0.94237882
-0.17717037 0.014816925 0.94060677
-0.17692864 0.015685305 0.93928039
-0.17668696 0.016553093 0.9379549
-0.17632762 0.017990328 0.93575841
-0.17595831 0.019421037 0.93357223
-0.17572659 0.020275984 0.93226618
-0.1754849 0.021130465 0.93096113
-0.17525326 0.021983925 0.92965734
-0.17501159 0.022832051 0.92836207
-0.17477992 0.023679398 0.9270677
-0.17453821 0.024521772 0.92578125
-0.17430662 0.025367677 0.92448908
-0.17395747 0.026768494 0.9223482
-0.17359832 0.02816252 0.92021805
-0.17303087 0.030098405 0.91726202
-0.17279923 0.030925836 0.91599822
-0.17256762 0.031752367 0.91473579
-0.17223185 0.032847539 0.91306394
-0.17189603 0.033936944 0.91140097
-0.17145586 0.035284996 0.9093439
-0.17101575 0.036631808 0.90728873
-0.17068981 0.037704125 0.90565169
-0.17024955 0.039034564 0.90362167
-0.1699236 0.040100165 0.90199494
-0.16959763 0.041160066 0.90037698
-0.16937596 0.041955516 0.89916199
-0.16904701 0.043285925 0.89712864
-0.16892974 0.043821309 0.89630991
-0.1688125 0.044356104 0.89549208
-0.16869517 0.044886302 0.89468133
-0.16857794 0.045420486 0.89386445
-0.16835636 0.04620754 0.89266235
-0.16814481 0.0469938 0.89146119
-0.1679232 0.047774769 0.89026845
-0.16771162 0.048555035 0.88907647
-0.16739571 0.049587257 0.8875007
-0.16707964 0.050609402 0.88594043
-0.16676372 0.051635254 0.88437444
-0.16644768 0.052650783 0.8828243
-0.16603726 0.053912956 0.88089824
-0.16550961 0.055682965 0.87819576
-0.16529804 0.056443516 0.87703407
-0.16499202 0.05744531 0.87550473
-0.16478044 0.058199808 0.87435234
-0.16457886 0.058953568 0.87320077
-0.16427277 0.059943803 0.8716892
-0.16406117 0.06069167 0.870547
-0.16385961 0.061438784 0.86940563
-0.16364799 0.062180877 0.8682723
-0.16344649 0.062926799 0.86713278
-0.16323492 0.063667685 0.86600131
-0.1626302 0.065876961 0.86262649
-0.16241865 0.066610925 0.86150563
-0.16221713 0.067344114 0.86038566
-0.16190857 0.068568453 0.85851461
-0.16141097 0.070252404 0.85594338
-0.16103019 0.071429923 0.85414642
-0.16073413 0.072380371 0.85269564
-0.16044791 0.073320925 0.85125977
-0.16024636 0.074035063 0.85016906
-0.15996023 0.074974172 0.84873539
-0.15947247 0.076615557 0.84622926
-0.15928096 0.077322312 0.84514958
-0.15907946 0.07802888 0.84407049
-0.15888789 0.078730166 0.84299922
-0.15858954 0.07991083 0.84119493
-0.15839805 0.080610633 0.84012592
-0.15792033 0.082218878 0.83767039
-0.15745261 0.083819769 0.83522582
-0.15726109 0.084507152 0.83417588
-0.15706958 0.085194208 0.83312649
-0.15687811 0.085880667 0.83207798
-0.15660185 0.086776316 0.83071077
-0.15632562 0.087671377 0.82934445
-0.15613405 0.088346593 0.82831323
-0.15595259 0.089025982 0.82727528
-0.15576108 0.089700334 0.82624537
-0.15557958 0.090373948 0.82521629
-0.1553881 0.091047406 0.82418776
-0.15512186 0.091928974 0.82284188
-0.15457927 0.093676485 0.8201744
-0.1543878 0.094342999 0.81915653
-0.15420631 0.095003888 0.818147
-0.15402481 0.095664494 0.8171379
-0.15357706 0.097187892 0.81481177
-0.15329899 0.09829697 0.81311679
-0.1529244 0.099853322 0.81073779
-0.1527428 0.10050299 0.80974549
-0.15248656 0.10135233 0.80844879
-0.15213536 0.1023955 0.80685729
-0.15179418 0.10343094 0.80527735
-0.15153767 0.10426659 0.80400169
-0.1512813 0.10509925 0.80273062
-0.15074688 0.10700738 0.79981619
-0.15057553 0.10763884 0.79885155
-0.15014762 0.10909381 0.79662991
-0.14938845 0.1115402 0.79289562
-0.14896044 0.1129709 0.79071122
-0.14878905 0.11359026 0.78976518
-0.14802687 0.11647639 0.78535557
-0.14776909 0.11751387 0.78376997
-0.14767279 0.11793669 0.78312349
-0.14751135 0.11854377 0.78219599
-0.14709359 0.1199366 0.78006947
-0.14685704 0.12072051 0.77887267
-0.14644922 0.12210106 0.77676469
-0.14627784 0.12270074 0.77584887
-0.14611635 0.12329568 0.77494001
-0.14595509 0.12389224 0.77402866
-0.1457836 0.12448734 0.77311987
-0.14554714 0.12525612 0.77194631
-0.1453106 0.12602034 0.77077973
