ply
format ascii 1.0
comment Author: CloudCompare (TELECOM PARISTECH/EDF R&D)
obj_info Generated by CloudCompare!
element vertex 1117
property float x
property float y
property float z
property uchar red
property uchar green
property uchar blue
property float scalar_Scalar_field
end_header
100.196 102.1 200.727 164 186 168 -1402 
100.196 102.102 200.728 168 182 166 -1404 
100.196 102.102 200.729 142 158 146 -1406 
100.196 102.101 200.731 134 158 142 -1398 
100.196 102.1 200.733 132 152 134 -1401 
100.196 102.099 200.735 154 160 146 -1412 
100.196 102.1 200.736 156 162 158 -1408 
100.196 102.1 200.737 144 178 170 -1402 
100.196 102.101 200.738 146 182 170 -1399 
100.196 102.101 200.74 152 170 170 -1408 
100.196 102.099 200.742 148 178 166 -1404 
100.196 102.1 200.743 144 174 154 -1379 
100.196 102.1 200.745 150 176 146 -1318 
100.196 102.102 200.745 154 174 156 -1309 
100.196 102.103 200.747 150 172 166 -1472 
100.197 102.107 200.746 150 174 162 -1571 
100.197 102.11 200.747 156 180 166 -1579 
100.198 102.117 200.746 148 172 164 -1581 
100.198 102.12 200.746 148 172 164 -1578 
100.198 102.124 200.746 164 186 180 -1575 
100.199 102.127 200.747 164 190 184 -1573 
100.199 102.132 200.746 212 238 236 -1584 
100.199 102.136 200.746 230 230 232 -1583 
100.2 102.14 200.746 254 192 190 -1579 
100.2 102.144 200.746 252 0 0 -1570 
100.201 102.143 200.747 254 0 0 -1567 
100.201 102.141 200.746 198 50 42 -1563 
100.201 102.137 200.746 226 236 240 -1580 
100.201 102.134 200.746 208 236 242 -1578 
100.2 102.129 200.746 190 206 196 -1576 
100.2 102.126 200.745 154 182 176 -1580 
100.199 102.121 200.746 154 176 174 -1578 
100.199 102.115 200.747 150 172 164 -1581 
100.198 102.112 200.747 148 172 160 -1581 
100.198 102.109 200.746 148 176 164 -1558 
100.198 102.106 200.746 152 174 164 -1462 
100.198 102.103 200.745 160 182 164 -1311 
100.197 102.102 200.745 158 182 152 -1310 
100.197 102.101 200.743 158 186 156 -1387 
100.197 102.101 200.742 142 178 158 -1399 
100.197 102.101 200.74 150 168 172 -1414 
100.197 102.101 200.739 138 166 162 -1404 
100.198 102.102 200.737 134 166 160 -1404 
100.197 102.101 200.736 154 174 172 -1405 
100.197 102.101 200.734 154 160 142 -1405 
100.197 102.102 200.733 142 156 132 -1414 
100.197 102.101 200.732 146 166 148 -1407 
100.198 102.102 200.73 158 174 158 -1401 
100.197 102.101 200.729 162 174 158 -1401 
100.197 102.101 200.727 166 184 166 -1414 
100.197 102.102 200.725 156 182 154 -1411 
100.197 102.101 200.724 156 182 178 -1398 
100.198 102.104 200.721 158 184 174 -1328 
100.198 102.105 200.719 160 184 174 -1207 
100.198 102.106 200.717 154 178 174 -1201 
100.198 102.107 200.715 148 178 176 -1184 
100.198 102.107 200.714 146 186 178 -1176 
100.198 102.106 200.713 142 184 174 -1201 
100.198 102.108 200.711 144 180 166 -1208 
100.198 102.106 200.71 148 180 162 -1213 
100.198 102.106 200.708 152 184 158 -1215 
100.198 102.106 200.707 154 186 162 -1192 
100.198 102.107 200.705 156 184 166 -1209 
100.198 102.105 200.704 148 178 156 -1224 
100.199 102.107 200.703 144 180 164 -1198 
100.199 102.107 200.705 152 184 174 -1203 
100.199 102.106 200.707 158 178 166 -1198 
100.199 102.108 200.708 150 178 174 -1201 
100.199 102.107 200.709 146 180 176 -1212 
100.199 102.106 200.711 146 178 166 -1216 
100.199 102.107 200.712 164 188 174 -1222 
100.199 102.108 200.714 160 186 172 -1191 
100.199 102.107 200.715 156 186 168 -1187 
100.199 102.107 200.717 148 180 158 -1192 
100.199 102.107 200.718 146 176 160 -1206 
100.199 102.104 200.721 150 184 170 -1294 
100.199 102.105 200.722 146 182 168 -1389 
100.199 102.104 200.724 170 184 170 -1391 
100.199 102.102 200.727 174 188 178 -1408 
100.199 102.104 200.727 160 174 170 -1406 
100.199 102.103 200.729 140 162 156 -1412 
100.199 102.101 200.732 150 178 162 -1408 
100.199 102.103 200.732 130 146 132 -1403 
100.199 102.101 200.734 140 152 146 -1413 
100.199 102.102 200.735 138 166 160 -1403 
100.199 102.103 200.736 134 170 160 -1409 
100.199 102.102 200.738 142 178 166 -1405 
100.199 102.101 200.74 150 166 166 -1419 
100.199 102.103 200.741 152 180 164 -1413 
100.199 102.102 200.743 146 174 168 -1411 
100.199 102.103 200.744 144 170 170 -1351 
100.199 102.103 200.745 148 176 170 -1311 
100.199 102.105 200.746 154 176 170 -1431 
100.2 102.109 200.746 152 168 158 -1544 
100.2 102.111 200.747 158 174 164 -1590 
100.2 102.115 200.747 152 168 158 -1584 
100.201 102.121 200.746 154 178 166 -1556 
100.201 102.126 200.745 150 178 160 -1557 
100.201 102.13 200.745 168 186 188 -1579 
100.202 102.132 200.746 202 212 214 -1574 
100.202 102.135 200.747 222 238 238 -1587 
100.203 102.142 200.746 240 238 234 -1575 
100.203 102.145 200.746 208 24 26 -1561 
100.204 102.139 200.747 216 236 234 -1569 
100.203 102.134 200.747 220 246 242 -1593 
100.203 102.132 200.746 192 204 202 -1588 
100.203 102.129 200.746 156 178 176 -1579 
100.202 102.121 200.747 148 180 156 -1577 
100.202 102.12 200.746 146 174 156 -1574 
100.201 102.115 200.746 142 166 150 -1580 
100.201 102.112 200.746 158 178 164 -1570 
100.201 102.109 200.745 150 170 156 -1493 
100.2 102.105 200.746 146 170 156 -1360 
100.2 102.103 200.745 144 168 158 -1306 
100.2 102.103 200.744 150 176 168 -1380 
100.2 102.103 200.742 156 178 168 -1409 
100.2 102.105 200.74 146 170 154 -1405 
100.2 102.104 200.738 154 174 170 -1406 
100.201 102.106 200.736 154 180 170 -1420 
100.2 102.104 200.736 144 170 162 -1413 
100.2 102.102 200.735 138 162 154 -1401 
100.2 102.103 200.733 136 156 144 -1401 
100.2 102.104 200.732 136 154 142 -1402 
100.2 102.103 200.73 144 170 166 -1408 
100.2 102.103 200.729 146 172 172 -1412 
100.2 102.104 200.727 164 178 168 -1406 
100.2 102.104 200.725 170 182 168 -1403 
100.2 102.102 200.725 164 178 160 -1406 
100.2 102.105 200.722 156 180 168 -1361 
100.201 102.108 200.719 156 182 170 -1242 
100.201 102.107 200.718 150 180 168 -1196 
100.201 102.109 200.716 152 186 168 -1197 
100.201 102.108 200.715 140 180 160 -1205 
100.201 102.107 200.714 146 182 166 -1213 
100.201 102.108 200.712 140 174 158 -1226 
100.201 102.108 200.71 156 192 178 -1223 
100.201 102.108 200.708 144 176 176 -1195 
100.201 102.109 200.707 148 174 170 -1197 
100.201 102.109 200.705 160 176 166 -1189 
100.201 102.11 200.703 154 184 174 -1200 
100.202 102.109 200.704 146 170 164 -1214 
100.202 102.109 200.705 156 178 170 -1198 
100.202 102.108 200.707 158 178 180 -1191 
100.202 102.109 200.708 148 170 168 -1182 
100.202 102.109 200.71 158 182 166 -1211 
100.202 102.109 200.711 160 180 166 -1215 
100.202 102.108 200.713 160 178 172 -1194 
100.202 102.109 200.714 154 174 170 -1200 
100.202 102.109 200.716 150 176 168 -1192 
100.202 102.108 200.718 152 180 172 -1180 
100.202 102.108 200.719 150 176 168 -1202 
100.202 102.107 200.721 162 180 168 -1308 
100.202 102.105 200.723 160 176 162 -1382 
100.202 102.103 200.725 166 180 162 -1410 
100.202 102.105 200.726 154 170 158 -1396 
100.202 102.104 200.728 138 162 168 -1405 
100.202 102.106 200.729 148 174 178 -1403 
100.202 102.103 200.732 154 176 172 -1394 
100.202 102.105 200.732 126 154 136 -1395 
100.202 102.104 200.734 124 154 136 -1403 
100.202 102.105 200.735 146 162 150 -1406 
100.202 102.104 200.737 156 168 160 -1422 
100.202 102.105 200.738 148 170 162 -1422 
100.202 102.105 200.74 150 176 168 -1394 
100.202 102.104 200.741 140 166 152 -1411 
100.202 102.103 200.743 146 172 160 -1391 
100.202 102.104 200.745 148 172 158 -1348 
100.202 102.106 200.745 150 174 160 -1315 
100.202 102.108 200.746 146 172 160 -1435 
100.202 102.111 200.746 142 170 158 -1562 
100.203 102.114 200.747 146 174 158 -1579 
100.203 102.119 200.746 144 174 156 -1573 
100.203 102.121 200.747 146 176 154 -1580 
100.204 102.127 200.746 152 182 160 -1592 
100.204 102.132 200.746 180 202 192 -1586 
100.205 102.136 200.746 220 240 240 -1585 
100.205 102.14 200.746 214 244 248 -1568 
100.205 102.144 200.746 254 210 214 -1563 
100.207 102.144 200.746 254 226 234 -1561 
100.206 102.14 200.746 208 236 240 -1553 
100.206 102.134 200.747 212 228 228 -1575 
100.206 102.132 200.746 164 186 176 -1573 
100.205 102.128 200.746 146 180 168 -1571 
100.205 102.124 200.746 150 174 158 -1582 
100.204 102.119 200.746 144 170 156 -1590 
100.204 102.116 200.746 146 172 164 -1580 
100.204 102.114 200.745 140 166 164 -1538 
100.203 102.108 200.746 144 170 166 -1424 
100.203 102.106 200.745 146 172 162 -1317 
100.203 102.105 200.744 142 168 156 -1354 
100.203 102.106 200.742 156 184 172 -1405 
100.203 102.104 200.742 142 172 162 -1406 
100.203 102.106 200.739 134 164 164 -1399 
100.203 102.106 200.738 150 176 170 -1406 
100.203 102.103 200.737 162 178 166 -1408 
100.203 102.105 200.735 152 170 154 -1419 
100.203 102.106 200.734 138 156 142 -1411 
100.203 102.107 200.732 122 150 134 -1406 
100.203 102.104 200.731 138 164 150 -1401 
100.203 102.106 200.729 150 174 172 -1408 
100.203 102.105 200.728 160 184 184 -1409 
100.203 102.105 200.727 148 168 156 -1406 
100.203 102.106 200.725 166 184 168 -1410 
100.203 102.107 200.723 156 174 160 -1376 
100.203 102.108 200.721 158 178 168 -1281 
100.203 102.109 200.719 156 180 170 -1185 
100.204 102.11 200.717 160 186 180 -1194 
100.204 102.112 200.715 158 182 176 -1202 
100.204 102.11 200.714 164 174 174 -1200 
100.204 102.11 200.712 166 176 174 -1195 
100.204 102.11 200.711 156 170 156 -1205 
100.204 102.111 200.709 166 182 168 -1205 
100.204 102.11 200.708 162 180 172 -1210 
100.204 102.11 200.706 162 186 186 -1188 
100.204 102.111 200.704 136 166 158 -1200 
100.205 102.111 200.704 150 178 170 -1195 
100.205 102.112 200.706 158 184 180 -1208 
100.205 102.111 200.707 148 174 170 -1205 
100.205 102.112 200.708 150 184 166 -1219 
100.205 102.111 200.71 154 190 172 -1223 
100.205 102.112 200.712 152 178 174 -1218 
100.205 102.112 200.713 144 166 162 -1208 
100.205 102.113 200.714 152 178 170 -1197 
100.205 102.112 200.716 150 180 172 -1196 
100.205 102.11 200.718 154 176 174 -1198 
100.205 102.11 200.72 156 176 172 -1253 
100.205 102.108 200.722 146 176 172 -1345 
100.205 102.108 200.723 158 186 174 -1394 
100.205 102.107 200.725 156 180 166 -1415 
100.204 102.106 200.727 160 180 166 -1403 
100.205 102.108 200.728 162 188 170 -1409 
100.205 102.108 200.73 150 178 164 -1399 
100.204 102.107 200.732 142 158 152 -1403 
100.204 102.106 200.733 130 146 136 -1398 
100.204 102.105 200.735 148 168 148 -1405 
100.205 102.107 200.736 156 178 158 -1407 
100.204 102.106 200.738 150 176 172 -1412 
100.205 102.107 200.738 150 180 186 -1417 
100.205 102.107 200.74 144 174 166 -1396 
100.204 102.106 200.742 154 182 170 -1414 
100.205 102.107 200.743 146 170 164 -1383 
100.205 102.108 200.744 148 172 168 -1324 
100.205 102.108 200.746 154 178 176 -1356 
100.205 102.112 200.746 142 170 174 -1492 
100.205 102.115 200.746 140 170 164 -1557 
100.206 102.118 200.747 148 176 164 -1570 
100.206 102.123 200.746 150 170 160 -1582 
100.206 102.127 200.746 152 170 162 -1576 
100.207 102.132 200.746 144 170 164 -1582 
100.207 102.134 200.746 174 200 190 -1578 
100.208 102.138 200.746 212 232 234 -1570 
100.208 102.145 200.745 228 238 240 -1579 
100.209 102.143 200.746 218 244 246 -1576 
100.209 102.139 200.746 214 234 232 -1572 
100.209 102.137 200.745 182 208 200 -1563 
100.208 102.132 200.746 142 174 166 -1583 
100.208 102.127 200.746 144 166 164 -1578 
100.207 102.123 200.746 154 178 162 -1580 
100.207 102.119 200.746 146 176 158 -1571 
100.207 102.117 200.746 144 174 166 -1556 
100.206 102.111 200.747 142 172 170 -1463 
100.206 102.11 200.745 150 176 172 -1338 
100.206 102.107 200.745 146 166 160 -1330 
100.206 102.107 200.743 154 170 160 -1391 
100.206 102.108 200.742 152 174 156 -1405 
100.206 102.106 200.741 148 168 156 -1413 
100.206 102.107 200.739 154 174 182 -1404 
100.206 102.108 200.737 150 170 168 -1411 
100.206 102.107 200.736 140 168 154 -1424 
100.206 102.109 200.734 144 172 146 -1410 
100.206 102.109 200.732 134 152 136 -1410 
100.206 102.107 200.732 140 154 150 -1410 
100.206 102.108 200.73 152 180 166 -1408 
100.206 102.108 200.728 144 176 154 -1413 
100.206 102.108 200.727 150 174 158 -1404 
100.206 102.107 200.725 162 184 172 -1399 
100.206 102.107 200.724 156 184 172 -1396 
100.206 102.11 200.721 140 172 166 -1320 
100.206 102.112 200.719 146 164 164 -1238 
100.206 102.113 200.717 160 182 180 -1205 
100.206 102.113 200.716 152 178 170 -1210 
100.206 102.112 200.714 154 180 168 -1194 
100.206 102.112 200.713 150 176 172 -1213 
100.206 102.113 200.711 140 170 166 -1224 
100.206 102.112 200.71 148 188 176 -1224 
100.206 102.113 200.708 138 178 160 -1211 
100.206 102.112 200.707 148 180 170 -1201 
100.207 102.114 200.704 162 182 182 -1190 
100.206 102.113 200.704 148 172 164 -1210 
100.208 102.114 200.703 156 178 168 -1183 
100.208 102.114 200.704 162 182 180 -1187 
100.208 102.114 200.706 154 180 170 -1215 
100.208 102.113 200.708 154 184 170 -1222 
100.208 102.112 200.71 146 172 168 -1230 
100.208 102.113 200.711 156 174 174 -1213 
100.208 102.114 200.712 162 174 166 -1202 
100.208 102.114 200.714 162 176 166 -1222 
100.208 102.113 200.716 154 174 164 -1230 
100.208 102.113 200.717 162 188 184 -1210 
100.208 102.114 200.719 140 170 168 -1234 
100.207 102.11 200.721 142 174 164 -1315 
100.207 102.108 200.723 156 180 168 -1392 
100.207 102.108 200.725 148 170 160 -1407 
100.207 102.11 200.726 148 178 166 -1399 
100.207 102.109 200.728 134 170 154 -1413 
100.207 102.11 200.729 146 172 158 -1411 
100.207 102.109 200.731 144 160 150 -1403 
100.207 102.108 200.733 132 152 136 -1411 
100.207 102.108 200.734 138 166 142 -1412 
100.207 102.109 200.735 138 164 152 -1416 
100.207 102.109 200.736 152 172 170 -1410 
100.207 102.109 200.738 148 168 162 -1413 
100.207 102.11 200.739 154 172 156 -1408 
100.207 102.109 200.741 164 182 162 -1406 
100.207 102.109 200.743 172 190 178 -1401 
100.207 102.109 200.744 156 176 166 -1343 
100.207 102.109 200.745 142 168 156 -1327 
100.208 102.113 200.745 136 164 160 -1435 
100.208 102.115 200.746 150 182 168 -1546 
100.208 102.118 200.747 134 166 144 -1567 
100.209 102.123 200.746 148 172 150 -1564 
100.209 102.128 200.746 146 172 158 -1573 
100.21 102.131 200.746 132 170 154 -1577 
100.21 102.136 200.746 168 194 186 -1576 
100.21 102.139 200.746 200 204 208 -1574 
100.211 102.144 200.746 214 238 244 -1573 
100.212 102.144 200.746 212 236 240 -1575 
100.212 102.139 200.747 228 228 236 -1576 
100.211 102.136 200.746 156 182 174 -1579 
100.211 102.131 200.747 136 174 158 -1586 
100.211 102.128 200.746 156 174 162 -1581 
100.21 102.124 200.746 158 178 162 -1584 
100.21 102.12 200.746 156 178 156 -1574 
100.209 102.115 200.747 146 166 160 -1541 
100.209 102.113 200.746 150 170 168 -1434 
100.209 102.11 200.745 150 172 158 -1310 
100.209 102.109 200.745 150 174 158 -1344 
100.209 102.111 200.742 150 172 164 -1394 
100.209 102.109 200.741 146 168 158 -1399 
100.209 102.111 200.739 146 174 152 -1412 
100.209 102.109 200.738 144 170 156 -1408 
100.209 102.109 200.737 156 172 162 -1414 
100.209 102.111 200.735 150 166 154 -1412 
100.209 102.109 200.734 128 152 134 -1416 
100.209 102.11 200.732 124 152 132 -1407 
100.209 102.11 200.731 144 168 150 -1411 
100.209 102.109 200.73 152 176 162 -1402 
100.209 102.11 200.728 142 172 166 -1395 
100.209 102.11 200.726 142 180 182 -1392 
100.209 102.11 200.725 146 176 170 -1400 
100.209 102.111 200.723 164 178 160 -1368 
100.209 102.112 200.721 166 188 168 -1293 
100.209 102.115 200.718 146 178 160 -1212 
100.209 102.116 200.716 148 180 174 -1206 
100.209 102.115 200.715 152 178 168 -1216 
100.209 102.114 200.714 166 182 170 -1205 
100.209 102.115 200.712 162 174 166 -1206 
100.209 102.114 200.711 152 170 170 -1198 
100.209 102.114 200.71 146 172 168 -1196 
100.209 102.114 200.708 152 180 168 -1214 
100.209 102.114 200.706 154 180 170 -1212 
100.209 102.114 200.705 150 174 168 -1204 
100.209 102.115 200.703 152 176 168 -1195 
100.211 102.116 200.703 150 176 172 -1204 
100.211 102.116 200.705 148 174 164 -1187 
100.211 102.116 200.706 158 186 166 -1202 
100.211 102.116 200.708 160 188 174 -1202 
100.211 102.115 200.71 152 178 176 -1226 
100.211 102.116 200.711 154 180 176 -1232 
100.211 102.117 200.712 162 182 170 -1213 
100.211 102.116 200.714 148 170 158 -1219 
100.211 102.115 200.716 144 178 168 -1207 
100.211 102.115 200.717 144 182 174 -1210 
100.211 102.114 200.719 138 166 146 -1248 
100.21 102.113 200.721 162 176 158 -1327 
100.21 102.112 200.723 158 176 164 -1379 
100.21 102.111 200.725 142 178 180 -1393 
100.21 102.111 200.726 144 178 180 -1404 
100.21 102.112 200.728 152 176 160 -1402 
100.21 102.111 200.73 150 174 156 -1410 
100.21 102.11 200.731 140 168 148 -1408 
100.21 102.11 200.733 126 150 136 -1410 
100.21 102.11 200.734 140 158 146 -1417 
100.21 102.11 200.736 152 166 156 -1419 
100.21 102.111 200.736 140 170 164 -1413 
100.21 102.111 200.738 146 176 158 -1412 
100.21 102.112 200.74 146 178 162 -1410 
100.21 102.11 200.742 142 168 164 -1407 
100.21 102.11 200.743 152 174 168 -1399 
100.21 102.111 200.744 148 170 156 -1337 
100.21 102.112 200.745 154 170 166 -1332 
100.21 102.114 200.746 154 168 172 -1458 
100.211 102.121 200.745 160 178 166 -1550 
100.211 102.122 200.746 160 178 166 -1578 
100.212 102.124 200.747 160 176 170 -1584 
100.212 102.129 200.747 146 168 154 -1588 
100.212 102.133 200.746 154 180 166 -1589 
100.213 102.138 200.746 170 194 180 -1573 
100.213 102.144 200.745 194 212 204 -1582 
100.215 102.144 200.747 220 240 242 -1584 
100.214 102.141 200.746 182 210 192 -1579 
100.214 102.134 200.747 142 174 156 -1583 
100.214 102.132 200.746 154 178 164 -1585 
100.213 102.128 200.746 152 172 164 -1579 
100.213 102.125 200.746 154 180 176 -1569 
100.212 102.121 200.746 146 170 156 -1559 
100.212 102.116 200.747 146 166 160 -1508 
100.212 102.115 200.745 166 180 186 -1362 
100.212 102.112 200.745 154 172 160 -1310 
100.212 102.113 200.743 154 176 162 -1372 
100.212 102.112 200.742 144 168 166 -1412 
100.212 102.114 200.74 132 160 164 -1400 
100.212 102.113 200.738 146 174 170 -1409 
100.212 102.113 200.737 148 178 164 -1408 
100.211 102.11 200.736 150 178 170 -1415 
100.212 102.112 200.735 146 166 154 -1411 
100.212 102.113 200.733 138 162 148 -1409 
100.212 102.113 200.731 140 158 152 -1412 
100.212 102.112 200.73 150 168 162 -1422 
100.212 102.114 200.728 160 176 164 -1409 
100.212 102.114 200.726 158 176 158 -1420 
100.212 102.112 200.725 158 178 166 -1398 
100.211 102.111 200.724 154 178 172 -1387 
100.212 102.114 200.722 156 182 172 -1345 
100.212 102.117 200.719 158 178 164 -1259 
100.212 102.116 200.718 160 176 164 -1213 
100.212 102.116 200.716 152 178 164 -1211 
100.212 102.118 200.714 166 186 176 -1216 
100.212 102.118 200.712 156 174 164 -1210 
100.212 102.117 200.712 154 180 172 -1208 
100.212 102.116 200.71 148 180 174 -1216 
100.212 102.118 200.708 148 174 168 -1209 
100.212 102.117 200.707 156 178 160 -1211 
100.212 102.117 200.705 162 182 162 -1210 
100.212 102.117 200.704 154 174 164 -1200 
100.214 102.118 200.704 168 182 164 -1216 
100.214 102.118 200.706 166 178 156 -1217 
100.213 102.117 200.708 158 172 156 -1207 
100.213 102.117 200.709 148 174 172 -1202 
100.213 102.117 200.71 140 170 168 -1210 
100.214 102.118 200.712 162 180 170 -1209 
100.213 102.117 200.713 166 180 170 -1229 
100.214 102.118 200.715 160 184 170 -1225 
100.214 102.118 200.716 156 184 170 -1213 
100.214 102.118 200.717 152 172 162 -1214 
100.213 102.117 200.719 148 178 168 -1264 
100.213 102.115 200.722 154 184 176 -1354 
100.213 102.113 200.724 160 176 166 -1393 
100.213 102.113 200.726 164 178 160 -1409 
100.213 102.113 200.727 158 174 156 -1407 
100.213 102.114 200.728 162 174 168 -1409 
100.213 102.114 200.73 142 158 156 -1404 
100.213 102.113 200.732 134 158 146 -1404 
100.213 102.113 200.733 142 168 154 -1413 
100.213 102.112 200.735 132 146 144 -1410 
100.213 102.113 200.736 144 170 160 -1415 
100.213 102.113 200.737 150 178 164 -1408 
100.213 102.113 200.739 142 168 164 -1406 
100.213 102.113 200.74 146 170 180 -1405 
100.213 102.112 200.742 144 168 166 -1413 
100.213 102.113 200.743 148 168 154 -1389 
100.213 102.114 200.745 150 166 164 -1316 
100.213 102.115 200.745 142 160 162 -1381 
100.214 102.119 200.745 162 182 176 -1506 
100.214 102.123 200.745 144 174 162 -1561 
100.214 102.127 200.746 148 180 174 -1567 
100.215 102.13 200.746 160 182 172 -1577 
100.215 102.134 200.746 150 174 160 -1586 
100.216 102.138 200.746 156 194 170 -1587 
100.216 102.141 200.746 160 192 170 -1578 
100.217 102.144 200.746 218 228 220 -1577 
100.217 102.14 200.746 190 210 202 -1589 
100.217 102.135 200.746 148 170 162 -1587 
100.216 102.133 200.745 154 176 170 -1585 
100.216 102.128 200.746 148 180 174 -1583 
100.215 102.124 200.746 142 168 158 -1570 
100.215 102.121 200.745 152 178 166 -1525 
100.215 102.117 200.745 140 166 158 -1398 
100.214 102.113 200.745 138 162 158 -1320 
100.214 102.114 200.744 150 172 166 -1367 
100.214 102.114 200.742 146 166 154 -1402 
100.214 102.114 200.74 162 180 166 -1406 
100.214 102.114 200.739 154 172 162 -1404 
100.214 102.114 200.738 144 166 158 -1408 
100.214 102.114 200.736 150 176 168 -1414 
100.214 102.114 200.735 142 160 164 -1402 
100.214 102.114 200.733 126 146 146 -1408 
100.214 102.114 200.732 132 152 144 -1411 
100.214 102.114 200.73 148 168 152 -1407 
100.214 102.114 200.729 158 178 166 -1403 
100.214 102.114 200.727 158 174 172 -1399 
100.214 102.113 200.726 158 176 168 -1408 
100.214 102.114 200.724 148 168 156 -1397 
100.214 102.114 200.723 160 180 176 -1348 
100.215 102.117 200.72 154 174 176 -1275 
100.215 102.119 200.717 160 182 172 -1211 
100.215 102.118 200.717 146 172 150 -1212 
100.215 102.119 200.714 154 182 166 -1215 
100.215 102.119 200.713 154 180 162 -1210 
100.215 102.12 200.711 156 180 176 -1197 
100.215 102.119 200.71 152 178 174 -1217 
100.215 102.118 200.709 150 178 160 -1221 
100.215 102.119 200.707 150 176 160 -1211 
100.215 102.119 200.705 152 180 158 -1210 
100.215 102.118 200.704 166 190 166 -1210 
100.216 102.119 200.705 158 184 162 -1221 
100.216 102.119 200.706 152 180 162 -1221 
100.216 102.119 200.708 150 180 162 -1227 
100.216 102.12 200.709 148 174 168 -1212 
100.216 102.12 200.711 160 184 178 -1209 
100.216 102.12 200.712 144 170 154 -1217 
100.216 102.12 200.714 150 176 162 -1215 
100.216 102.12 200.715 150 174 170 -1202 
100.216 102.12 200.717 158 180 168 -1220 
100.216 102.12 200.719 150 172 166 -1246 
100.216 102.12 200.72 156 174 174 -1301 
100.216 102.114 200.724 148 168 166 -1380 
100.216 102.117 200.724 154 172 166 -1409 
100.216 102.115 200.727 160 180 170 -1414 
100.216 102.114 200.728 160 180 168 -1421 
100.216 102.114 200.73 158 180 160 -1424 
100.216 102.116 200.731 148 172 156 -1416 
100.216 102.116 200.732 118 138 138 -1414 
100.216 102.114 200.734 136 156 162 -1419 
100.216 102.114 200.736 150 172 166 -1415 
100.216 102.115 200.737 148 166 160 -1418 
100.216 102.115 200.738 154 172 160 -1414 
100.216 102.115 200.74 140 158 144 -1414 
100.216 102.116 200.741 156 176 164 -1410 
100.216 102.116 200.742 142 164 160 -1391 
100.216 102.115 200.744 142 168 164 -1335 
100.216 102.116 200.745 146 172 162 -1329 
100.216 102.119 200.746 150 174 160 -1454 
100.216 102.121 200.747 146 168 158 -1554 
100.217 102.127 200.746 146 164 160 -1566 
100.218 102.131 200.746 136 172 164 -1575 
100.218 102.135 200.746 160 174 168 -1570 
100.218 102.137 200.746 168 176 174 -1579 
100.219 102.145 200.747 230 236 232 -1580 
100.22 102.145 200.745 186 216 216 -1578 
100.22 102.139 200.746 170 190 188 -1577 
100.219 102.135 200.746 148 166 154 -1578 
100.219 102.133 200.745 132 172 164 -1569 
100.219 102.128 200.746 152 174 172 -1572 
100.218 102.125 200.745 154 170 166 -1530 
100.217 102.118 200.747 152 172 160 -1420 
100.217 102.117 200.745 152 180 166 -1316 
100.217 102.117 200.744 140 170 162 -1343 
100.217 102.116 200.743 150 180 180 -1400 
100.217 102.116 200.741 146 174 170 -1403 
100.218 102.118 200.739 142 168 154 -1402 
100.217 102.116 200.738 144 168 152 -1406 
100.217 102.116 200.737 152 170 164 -1395 
100.217 102.116 200.735 150 170 168 -1401 
100.217 102.116 200.734 134 152 150 -1414 
100.217 102.116 200.732 130 150 140 -1411 
100.218 102.118 200.73 146 166 152 -1403 
100.217 102.116 200.729 154 174 164 -1413 
100.217 102.117 200.727 154 174 164 -1410 
100.217 102.117 200.726 154 174 166 -1415 
100.217 102.116 200.725 146 164 158 -1405 
100.218 102.119 200.722 162 180 178 -1358 
100.218 102.12 200.72 156 176 170 -1278 
100.218 102.12 200.719 162 180 168 -1221 
100.218 102.121 200.717 146 162 158 -1216 
100.218 102.122 200.715 154 170 174 -1204 
100.218 102.122 200.713 150 178 168 -1196 
100.218 102.122 200.712 150 182 166 -1201 
100.218 102.121 200.71 156 178 168 -1214 
100.218 102.121 200.709 160 186 174 -1209 
100.218 102.121 200.708 150 182 166 -1227 
100.218 102.12 200.706 156 180 166 -1229 
100.218 102.121 200.704 156 178 166 -1210 
100.219 102.122 200.704 146 178 162 -1201 
100.219 102.123 200.705 158 182 170 -1216 
100.219 102.122 200.707 146 180 162 -1218 
100.219 102.122 200.708 154 180 168 -1202 
100.219 102.122 200.71 158 180 168 -1222 
100.219 102.122 200.711 152 184 168 -1205 
100.219 102.122 200.713 146 172 166 -1203 
100.219 102.123 200.714 152 166 170 -1205 
100.219 102.122 200.716 156 172 172 -1223 
100.219 102.122 200.717 160 176 166 -1206 
100.219 102.121 200.719 152 172 162 -1221 
100.219 102.121 200.721 152 172 168 -1309 
100.219 102.118 200.723 150 172 164 -1379 
100.219 102.118 200.725 156 178 170 -1408 
100.219 102.118 200.727 150 170 166 -1402 
100.219 102.117 200.728 154 174 164 -1407 
100.219 102.118 200.73 148 170 150 -1409 
100.219 102.118 200.731 134 152 142 -1412 
100.219 102.116 200.734 138 154 152 -1418 
100.219 102.118 200.734 150 168 166 -1409 
100.219 102.117 200.736 152 172 166 -1399 
100.219 102.118 200.737 142 166 154 -1431 
100.219 102.116 200.739 142 170 156 -1419 
100.219 102.117 200.74 140 170 160 -1405 
100.219 102.118 200.741 132 162 164 -1404 
100.219 102.117 200.743 140 172 170 -1385 
100.219 102.117 200.745 142 170 152 -1314 
100.219 102.118 200.746 146 172 152 -1349 
100.219 102.122 200.746 150 166 162 -1465 
100.22 102.126 200.746 160 174 176 -1551 
100.22 102.129 200.746 136 172 168 -1573 
100.22 102.132 200.747 136 178 168 -1577 
100.221 102.136 200.747 164 172 162 -1570 
100.221 102.141 200.747 174 208 208 -1571 
100.223 102.143 200.746 162 188 184 -1583 
100.222 102.137 200.746 156 174 158 -1590 
100.222 102.135 200.746 148 174 162 -1584 
100.221 102.131 200.746 136 168 162 -1578 
100.221 102.129 200.745 152 174 166 -1544 
100.22 102.121 200.746 154 172 164 -1452 
100.22 102.119 200.746 154 176 160 -1334 
100.22 102.119 200.744 148 170 156 -1316 
100.22 102.118 200.743 148 172 164 -1380 
100.22 102.119 200.741 140 164 164 -1408 
100.22 102.119 200.74 140 166 162 -1415 
100.22 102.118 200.739 148 172 160 -1410 
100.22 102.118 200.737 146 168 156 -1422 
100.22 102.118 200.735 156 176 166 -1409 
100.22 102.118 200.734 144 162 154 -1410 
100.22 102.118 200.733 136 146 152 -1408 
100.22 102.12 200.73 132 144 140 -1416 
100.22 102.119 200.729 162 182 154 -1408 
100.22 102.12 200.727 166 188 164 -1412 
100.22 102.118 200.727 148 172 156 -1407 
100.22 102.119 200.725 152 176 172 -1420 
100.22 102.12 200.723 158 184 180 -1384 
100.22 102.121 200.721 164 188 186 -1296 
100.221 102.123 200.719 146 168 166 -1196 
100.221 102.123 200.717 168 190 184 -1206 
100.221 102.124 200.715 156 178 168 -1208 
100.221 102.122 200.714 160 182 170 -1220 
100.221 102.123 200.712 154 182 176 -1191 
100.221 102.123 200.711 146 180 164 -1214 
100.221 102.124 200.709 162 186 170 -1208 
100.221 102.124 200.708 152 180 166 -1225 
100.221 102.124 200.706 148 180 166 -1204 
100.221 102.124 200.704 162 182 174 -1218 
100.221 102.124 200.703 150 182 174 -1198 
100.222 102.124 200.704 164 182 176 -1201 
100.222 102.125 200.704 164 184 174 -1209 
100.222 102.124 200.706 140 178 160 -1219 
100.222 102.123 200.708 158 186 170 -1223 
100.222 102.125 200.709 152 184 166 -1217 
100.222 102.125 200.71 148 182 166 -1203 
100.222 102.125 200.712 156 180 176 -1217 
100.222 102.123 200.714 160 184 170 -1223 
100.222 102.125 200.715 148 170 160 -1223 
100.222 102.124 200.717 152 176 176 -1215 
100.222 102.123 200.719 148 174 172 -1183 
100.222 102.122 200.721 148 174 170 -1257 
100.222 102.121 200.723 142 168 166 -1366 
100.222 102.12 200.725 150 174 172 -1399 
100.222 102.119 200.727 152 174 156 -1414 
100.222 102.122 200.727 162 184 162 -1414 
100.222 102.12 200.729 154 168 152 -1406 
100.222 102.119 200.731 140 152 148 -1424 
100.221 102.118 200.733 132 142 144 -1420 
100.222 102.119 200.734 146 164 152 -1408 
100.222 102.119 200.735 150 168 158 -1407 
100.221 102.118 200.737 154 174 164 -1418 
100.221 102.118 200.738 146 166 156 -1414 
100.222 102.12 200.739 146 164 158 -1410 
100.222 102.12 200.741 148 168 166 -1411 
100.222 102.12 200.742 152 170 164 -1396 
100.222 102.119 200.744 158 178 166 -1342 
100.222 102.12 200.745 150 172 156 -1314 
100.222 102.124 200.745 156 174 164 -1424 
100.222 102.127 200.746 148 176 168 -1531 
100.223 102.131 200.746 142 168 162 -1579 
100.223 102.136 200.745 148 176 162 -1590 
100.224 102.14 200.745 148 174 158 -1584 
100.224 102.141 200.747 158 180 174 -1567 
100.226 102.144 200.746 158 184 176 -1576 
100.225 102.138 200.747 148 162 160 -1574 
100.225 102.136 200.746 150 172 156 -1588 
100.224 102.128 200.747 158 174 156 -1586 
100.224 102.126 200.747 136 178 172 -1549 
100.223 102.124 200.746 142 174 160 -1419 
100.223 102.123 200.745 148 176 158 -1314 
100.223 102.121 200.744 148 174 158 -1333 
100.223 102.121 200.742 140 162 152 -1390 
100.223 102.12 200.741 142 162 156 -1411 
100.223 102.12 200.74 150 172 160 -1407 
100.223 102.121 200.738 148 170 158 -1412 
100.223 102.121 200.736 148 174 162 -1405 
100.223 102.121 200.735 138 164 152 -1406 
100.223 102.121 200.734 132 162 140 -1422 
100.223 102.121 200.732 126 156 130 -1415 
100.223 102.12 200.73 152 166 154 -1414 
100.223 102.121 200.729 158 172 170 -1409 
100.223 102.121 200.727 150 166 166 -1416 
100.223 102.12 200.726 150 172 160 -1411 
100.223 102.121 200.724 154 176 166 -1404 
100.223 102.121 200.723 146 172 172 -1359 
100.223 102.124 200.72 142 172 170 -1239 
100.223 102.125 200.719 152 182 170 -1168 
100.224 102.125 200.717 150 180 170 -1221 
100.223 102.125 200.715 146 174 166 -1218 
100.224 102.126 200.714 148 174 168 -1216 
100.224 102.126 200.712 154 166 166 -1223 
100.223 102.125 200.711 150 184 168 -1218 
100.223 102.125 200.709 142 174 152 -1222 
100.223 102.125 200.708 146 174 160 -1220 
100.224 102.125 200.706 148 180 170 -1209 
100.223 102.124 200.705 160 180 170 -1223 
100.223 102.124 200.703 160 182 174 -1224 
100.225 102.128 200.703 160 176 168 -1228 
100.225 102.126 200.706 150 178 170 -1229 
100.225 102.126 200.707 148 176 160 -1214 
100.225 102.127 200.708 144 178 156 -1210 
100.225 102.128 200.71 150 182 168 -1230 
100.225 102.126 200.712 148 172 164 -1207 
100.225 102.125 200.713 152 180 170 -1220 
100.225 102.127 200.714 146 174 164 -1232 
100.225 102.126 200.716 150 178 168 -1214 
100.225 102.127 200.717 152 178 172 -1179 
100.225 102.126 200.719 152 176 180 -1195 
100.225 102.124 200.721 148 174 178 -1316 
100.225 102.123 200.723 152 178 174 -1391 
100.224 102.121 200.725 156 178 166 -1405 
100.225 102.123 200.727 156 176 172 -1407 
100.224 102.12 200.729 154 168 168 -1428 
100.225 102.122 200.73 148 164 152 -1418 
100.225 102.122 200.731 122 156 126 -1415 
100.224 102.122 200.733 134 168 142 -1408 
100.224 102.122 200.734 134 166 152 -1414 
100.225 102.123 200.735 134 164 152 -1406 
100.224 102.121 200.737 140 168 154 -1414 
100.225 102.122 200.738 142 168 158 -1411 
100.225 102.123 200.74 140 164 156 -1412 
100.224 102.122 200.742 144 170 160 -1408 
100.225 102.124 200.742 148 176 160 -1382 
100.225 102.122 200.745 140 178 158 -1299 
100.225 102.123 200.745 138 178 158 -1347 
100.225 102.127 200.745 138 180 178 -1489 
100.226 102.133 200.745 148 176 162 -1557 
100.226 102.133 200.747 152 176 160 -1585 
100.226 102.139 200.746 140 166 162 -1603 
100.227 102.144 200.745 158 170 164 -1588 
100.227 102.145 200.747 170 204 196 -1583 
100.228 102.142 200.747 136 162 156 -1578 
100.227 102.14 200.746 136 174 166 -1579 
100.227 102.135 200.746 140 178 164 -1572 
100.226 102.13 200.747 144 166 154 -1573 
100.226 102.128 200.746 144 164 164 -1488 
100.226 102.124 200.746 136 178 164 -1339 
100.226 102.123 200.745 136 176 154 -1298 
100.226 102.124 200.743 140 174 152 -1377 
100.226 102.123 200.742 144 172 160 -1427 
100.226 102.122 200.74 142 168 162 -1408 
100.226 102.124 200.738 148 172 168 -1405 
100.226 102.123 200.737 154 182 170 -1418 
100.226 102.122 200.736 142 174 160 -1418 
100.226 102.124 200.734 148 178 160 -1406 
100.226 102.123 200.733 130 160 140 -1405 
100.226 102.122 200.731 130 158 134 -1412 
100.226 102.12 200.731 142 158 140 -1410 
100.226 102.125 200.727 158 176 176 -1410 
100.226 102.123 200.727 152 170 172 -1410 
100.226 102.124 200.725 154 176 164 -1404 
100.226 102.124 200.723 152 176 160 -1386 
100.226 102.125 200.721 146 166 166 -1297 
100.226 102.127 200.719 154 172 184 -1187 
100.226 102.128 200.717 152 170 184 -1183 
100.226 102.128 200.715 156 176 174 -1195 
100.226 102.128 200.714 154 176 164 -1220 
100.226 102.128 200.712 160 184 164 -1209 
100.226 102.128 200.711 154 172 160 -1220 
100.226 102.127 200.71 150 180 166 -1221 
100.226 102.127 200.708 156 188 168 -1220 
100.226 102.127 200.707 154 182 168 -1238 
100.226 102.127 200.705 154 174 172 -1225 
100.226 102.128 200.703 160 176 174 -1212 
100.228 102.128 200.704 154 172 172 -1199 
100.228 102.13 200.705 154 182 170 -1199 
100.228 102.129 200.707 152 186 164 -1211 
100.228 102.129 200.708 152 180 166 -1223 
100.228 102.129 200.71 156 178 166 -1212 
100.228 102.128 200.712 162 182 162 -1218 
100.228 102.129 200.713 156 174 158 -1190 
100.228 102.129 200.715 148 166 166 -1210 
100.228 102.128 200.717 144 162 172 -1202 
100.228 102.129 200.718 148 166 170 -1184 
100.228 102.128 200.72 164 182 176 -1232 
100.227 102.126 200.722 152 174 160 -1347 
100.227 102.124 200.724 146 166 166 -1395 
100.227 102.126 200.725 152 172 176 -1412 
100.227 102.124 200.727 160 182 176 -1407 
100.227 102.124 200.729 158 180 168 -1417 
100.227 102.124 200.73 142 160 140 -1419 
100.227 102.124 200.732 134 154 134 -1415 
100.227 102.123 200.734 134 154 138 -1415 
100.227 102.124 200.735 154 176 160 -1410 
100.227 102.123 200.736 146 168 156 -1408 
100.227 102.124 200.738 146 164 166 -1418 
100.227 102.123 200.739 144 158 164 -1417 
100.227 102.124 200.74 148 166 158 -1416 
100.227 102.125 200.742 140 160 144 -1405 
100.227 102.124 200.743 152 180 162 -1366 
100.227 102.124 200.745 142 172 164 -1308 
100.227 102.126 200.746 142 162 160 -1395 
100.227 102.127 200.747 136 154 150 -1536 
100.228 102.133 200.746 146 186 172 -1583 
100.229 102.139 200.745 118 164 148 -1580 
100.229 102.142 200.746 150 168 166 -1574 
100.229 102.145 200.747 148 164 166 -1573 
100.23 102.143 200.746 150 178 170 -1579 
100.23 102.138 200.746 142 178 156 -1574 
100.23 102.134 200.746 140 180 172 -1560 
100.229 102.131 200.746 142 172 168 -1511 
100.229 102.127 200.746 150 174 166 -1395 
100.229 102.125 200.745 150 170 174 -1306 
100.229 102.126 200.743 154 176 160 -1356 
100.228 102.124 200.742 152 170 150 -1413 
100.229 102.125 200.741 162 176 168 -1417 
100.228 102.124 200.74 160 172 176 -1412 
100.229 102.126 200.737 152 164 170 -1407 
100.229 102.126 200.736 152 168 166 -1413 
100.229 102.125 200.735 156 174 160 -1409 
100.229 102.127 200.732 144 160 144 -1406 
100.229 102.126 200.732 144 156 140 -1405 
100.229 102.126 200.73 146 156 140 -1413 
100.229 102.126 200.728 146 168 150 -1416 
100.229 102.124 200.727 156 176 168 -1412 
100.229 102.125 200.725 156 176 176 -1401 
100.229 102.126 200.723 154 172 182 -1386 
100.229 102.126 200.722 154 172 172 -1335 
100.229 102.129 200.719 152 178 172 -1224 
100.229 102.129 200.718 148 180 168 -1184 
100.229 102.129 200.716 148 180 168 -1198 
100.229 102.129 200.715 148 180 166 -1224 
100.229 102.13 200.713 148 180 164 -1217 
100.229 102.13 200.712 152 176 174 -1209 
100.229 102.129 200.71 154 182 164 -1214 
100.229 102.129 200.709 152 180 162 -1224 
100.229 102.129 200.707 146 174 160 -1209 
100.229 102.13 200.705 152 178 170 -1207 
100.229 102.13 200.704 156 182 172 -1203 
100.231 102.131 200.705 148 174 164 -1212 
100.23 102.131 200.706 148 176 162 -1207 
100.231 102.131 200.708 146 178 160 -1217 
100.23 102.13 200.71 156 182 168 -1218 
100.231 102.132 200.71 148 174 170 -1200 
100.231 102.132 200.712 150 178 164 -1213 
100.23 102.131 200.714 152 182 170 -1220 
100.231 102.131 200.715 152 184 172 -1203 
100.231 102.131 200.717 144 174 164 -1192 
100.23 102.13 200.719 142 170 164 -1178 
100.23 102.13 200.72 150 172 164 -1286 
100.23 102.128 200.723 160 180 168 -1374 
100.23 102.127 200.725 158 178 170 -1411 
100.23 102.128 200.726 148 164 172 -1406 
100.23 102.126 200.728 152 172 168 -1417 
100.23 102.126 200.729 156 180 156 -1423 
100.23 102.128 200.73 148 166 150 -1407 
100.23 102.127 200.732 126 148 128 -1416 
100.23 102.127 200.734 144 168 144 -1412 
100.23 102.126 200.735 154 166 164 -1416 
100.23 102.127 200.736 156 170 174 -1419 
100.23 102.127 200.738 150 170 166 -1409 
100.23 102.126 200.74 154 172 156 -1410 
100.23 102.124 200.742 142 160 144 -1408 
100.23 102.126 200.743 158 184 166 -1391 
100.23 102.127 200.744 150 174 158 -1331 
100.23 102.127 200.745 156 166 168 -1331 
100.23 102.13 200.746 152 168 166 -1450 
100.231 102.132 200.747 150 180 162 -1547 
100.231 102.138 200.746 136 170 144 -1573 
100.232 102.144 200.745 150 176 162 -1578 
100.233 102.139 200.746 146 174 152 -1571 
100.232 102.136 200.745 148 176 154 -1561 
100.232 102.131 200.746 144 168 158 -1488 
100.232 102.129 200.745 152 170 164 -1349 
100.231 102.128 200.744 150 172 158 -1317 
100.232 102.128 200.743 150 172 160 -1387 
100.231 102.125 200.742 154 174 160 -1410 
100.232 102.128 200.74 156 174 158 -1400 
100.231 102.126 200.739 152 170 156 -1404 
100.231 102.127 200.737 146 162 152 -1406 
100.231 102.128 200.735 152 166 164 -1422 
100.231 102.127 200.734 148 164 156 -1417 
100.231 102.126 200.733 134 152 136 -1422 
100.232 102.128 200.731 128 148 128 -1410 
100.231 102.126 200.73 158 180 158 -1412 
100.232 102.128 200.727 154 178 156 -1417 
100.232 102.129 200.726 154 174 164 -1397 
100.232 102.129 200.725 158 174 174 -1404 
100.232 102.13 200.723 170 186 178 -1382 
100.232 102.13 200.721 146 166 160 -1285 
100.232 102.132 200.719 146 168 166 -1183 
100.232 102.132 200.717 148 178 170 -1174 
100.232 102.132 200.715 146 176 166 -1209 
100.232 102.132 200.714 146 176 164 -1212 
100.232 102.132 200.712 146 174 162 -1214 
100.232 102.132 200.711 152 178 166 -1206 
100.232 102.131 200.71 154 178 172 -1211 
100.232 102.132 200.708 154 184 174 -1212 
100.232 102.132 200.706 146 178 158 -1217 
100.232 102.132 200.704 156 178 158 -1217 
100.233 102.133 200.704 150 172 156 -1228 
100.234 102.134 200.704 148 180 162 -1234 
100.233 102.132 200.707 146 180 166 -1220 
100.233 102.132 200.708 150 174 172 -1205 
100.233 102.132 200.71 154 174 162 -1212 
100.234 102.134 200.711 150 172 162 -1202 
100.233 102.133 200.713 152 178 166 -1216 
100.234 102.134 200.714 150 178 166 -1217 
100.233 102.134 200.715 144 170 172 -1200 
100.234 102.134 200.717 152 176 180 -1164 
100.233 102.132 200.719 150 168 162 -1207 
100.233 102.131 200.721 158 176 168 -1317 
100.233 102.127 200.725 164 180 174 -1392 
100.233 102.13 200.725 156 176 166 -1405 
100.233 102.13 200.726 154 174 160 -1416 
100.233 102.128 200.729 152 170 154 -1424 
100.233 102.128 200.73 150 174 148 -1411 
100.233 102.129 200.731 128 146 130 -1418 
100.233 102.13 200.732 130 140 142 -1407 
100.233 102.128 200.734 148 160 166 -1410 
100.233 102.128 200.736 156 174 160 -1404 
100.233 102.128 200.737 152 164 150 -1406 
100.233 102.129 200.738 154 172 156 -1405 
100.233 102.13 200.74 154 178 160 -1405 
100.233 102.129 200.741 152 168 164 -1406 
100.233 102.128 200.743 146 162 160 -1370 
100.233 102.128 200.745 138 166 168 -1313 
100.233 102.13 200.745 144 170 168 -1351 
100.233 102.133 200.746 146 168 156 -1491 
100.234 102.137 200.746 156 178 162 -1569 
100.234 102.141 200.746 144 166 156 -1575 
100.235 102.144 200.746 144 168 162 -1571 
100.236 102.142 200.746 150 174 164 -1570 
100.235 102.138 200.746 156 178 158 -1557 
100.235 102.136 200.745 148 170 152 -1471 
100.234 102.13 200.745 144 172 168 -1332 
100.234 102.13 200.744 134 164 166 -1295 
100.234 102.13 200.742 148 162 166 -1366 
100.234 102.128 200.742 148 162 162 -1401 
100.234 102.13 200.74 156 178 158 -1396 
100.234 102.13 200.738 154 172 154 -1399 
100.234 102.13 200.736 158 170 156 -1415 
100.234 102.129 200.736 154 172 160 -1412 
100.234 102.128 200.734 146 166 162 -1401 
100.234 102.13 200.732 134 144 144 -1397 
100.234 102.129 200.731 134 152 132 -1413 
100.234 102.13 200.729 148 172 148 -1414 
100.234 102.13 200.727 154 170 160 -1410 
100.234 102.129 200.727 156 180 162 -1412 
100.234 102.13 200.725 160 180 168 -1405 
100.234 102.131 200.723 168 184 182 -1376 
100.235 102.132 200.721 156 174 166 -1285 
100.235 102.133 200.719 160 180 174 -1187 
100.235 102.134 200.717 148 170 174 -1199 
100.235 102.134 200.715 148 172 174 -1211 
100.235 102.134 200.714 158 184 174 -1220 
100.235 102.134 200.712 156 182 172 -1206 
100.235 102.134 200.711 152 172 162 -1208 
100.235 102.134 200.709 152 172 160 -1212 
100.235 102.135 200.707 152 180 170 -1217 
100.235 102.135 200.706 152 182 168 -1221 
100.235 102.135 200.704 154 180 166 -1223 
100.236 102.135 200.704 164 182 174 -1205 
100.236 102.134 200.706 156 178 166 -1225 
100.236 102.135 200.707 158 192 168 -1221 
100.236 102.134 200.709 152 172 160 -1219 
100.236 102.135 200.71 154 176 170 -1210 
100.236 102.135 200.712 150 174 168 -1198 
100.236 102.136 200.713 148 176 164 -1203 
100.236 102.136 200.714 146 172 172 -1212 
100.236 102.135 200.717 146 172 168 -1212 
100.236 102.135 200.718 158 180 168 -1194 
100.236 102.134 200.72 152 172 162 -1253 
100.236 102.132 200.722 154 176 164 -1370 
100.236 102.131 200.724 152 174 156 -1398 
100.236 102.132 200.725 146 170 154 -1409 
100.236 102.13 200.728 164 184 182 -1419 
100.236 102.131 200.729 152 176 162 -1419 
100.236 102.13 200.731 142 166 138 -1419 
100.236 102.13 200.732 136 154 136 -1406 
100.236 102.13 200.734 156 172 170 -1415 
100.236 102.128 200.736 152 168 166 -1415 
100.236 102.131 200.736 158 172 166 -1404 
100.236 102.131 200.738 154 174 156 -1408 
100.236 102.131 200.739 150 172 154 -1415 
100.236 102.13 200.741 148 168 166 -1414 
100.236 102.131 200.742 150 172 174 -1405 
100.236 102.131 200.743 136 166 164 -1342 
100.236 102.131 200.745 146 172 164 -1324 
100.236 102.133 200.746 150 174 152 -1424 
100.236 102.136 200.746 144 168 146 -1530 
100.237 102.142 200.745 146 174 160 -1581 
100.237 102.144 200.747 142 174 158 -1581 
100.238 102.141 200.746 150 180 168 -1563 
100.238 102.14 200.745 146 172 162 -1509 
100.238 102.135 200.745 154 176 162 -1397 
100.237 102.132 200.745 140 168 160 -1289 
100.237 102.133 200.743 130 160 156 -1339 
100.237 102.132 200.742 138 162 164 -1393 
100.237 102.131 200.74 146 172 168 -1406 
100.237 102.13 200.74 144 166 158 -1402 
100.237 102.132 200.738 152 172 158 -1403 
100.237 102.132 200.736 152 172 160 -1406 
100.237 102.132 200.734 148 164 164 -1415 
100.237 102.132 200.733 148 164 162 -1423 
100.237 102.134 200.731 132 156 130 -1418 
100.237 102.133 200.73 142 166 140 -1413 
100.237 102.132 200.729 150 172 162 -1414 
100.237 102.133 200.727 152 178 174 -1418 
100.237 102.132 200.725 154 178 172 -1410 
100.237 102.133 200.723 154 178 160 -1396 
100.237 102.133 200.722 160 182 168 -1343 
100.238 102.135 200.719 154 176 164 -1224 
100.238 102.137 200.717 152 178 158 -1189 
100.238 102.137 200.716 152 180 170 -1225 
100.238 102.137 200.714 150 176 172 -1210 
100.238 102.136 200.713 152 182 172 -1219 
100.238 102.137 200.711 154 180 174 -1202 
100.238 102.136 200.71 160 182 180 -1213 
100.238 102.137 200.708 152 172 160 -1211 
100.238 102.137 200.706 158 190 170 -1201 
100.238 102.137 200.705 156 176 164 -1213 
100.239 102.138 200.703 152 172 158 -1220 
100.239 102.138 200.705 162 188 174 -1220 
100.239 102.137 200.706 156 178 176 -1231 
100.239 102.138 200.708 156 178 170 -1215 
100.239 102.137 200.71 150 176 172 -1205 
100.239 102.139 200.71 146 174 166 -1208 
100.239 102.138 200.712 146 178 164 -1219 
100.239 102.138 200.714 146 176 162 -1209 
100.239 102.138 200.715 146 176 154 -1197 
100.239 102.137 200.717 154 180 162 -1213 
100.239 102.136 200.719 148 172 158 -1226 
100.239 102.135 200.721 152 176 160 -1307 
100.239 102.133 200.723 146 174 156 -1385 
100.239 102.133 200.725 156 182 182 -1402 
100.239 102.131 200.727 142 176 158 -1415 
100.239 102.134 200.727 148 172 168 -1427 
100.239 102.133 200.729 150 176 160 -1416 
100.239 102.132 200.731 136 168 138 -1418 
100.239 102.133 200.732 138 156 144 -1411 
100.239 102.134 200.734 140 156 154 -1412 
100.239 102.133 200.735 148 174 160 -1423 
100.239 102.132 200.737 146 168 158 -1417 
100.239 102.132 200.738 142 168 164 -1403 
100.239 102.133 200.74 142 172 164 -1416 
100.239 102.133 200.741 144 170 160 -1397 
100.239 102.133 200.743 140 174 164 -1391 
100.239 102.132 200.745 140 172 156 -1318 
100.239 102.134 200.745 152 174 158 -1348 
100.239 102.137 200.746 154 174 166 -1462 
100.24 102.141 200.746 152 174 166 -1540 
100.241 102.143 200.746 148 172 166 -1555 
100.241 102.139 200.745 148 170 162 -1485 
100.24 102.136 200.745 150 176 154 -1334 
100.24 102.133 200.745 148 176 154 -1323 
100.24 102.135 200.742 138 168 162 -1391 
100.24 102.134 200.741 140 168 156 -1407 
100.24 102.134 200.74 140 172 160 -1407 
100.24 102.133 200.738 138 164 160 -1408 
100.24 102.134 200.737 150 168 168 -1413 
100.24 102.135 200.735 142 168 154 -1409 
100.24 102.134 200.734 146 168 158 -1401 
100.24 102.133 200.733 124 142 126 -1414 
100.24 102.134 200.731 134 160 134 -1416 
100.24 102.134 200.729 136 164 152 -1417 
100.24 102.133 200.728 150 170 172 -1404 
100.24 102.135 200.726 136 170 150 -1407 
100.24 102.135 200.724 148 172 176 -1389 
100.24 102.135 200.723 148 174 168 -1380 
100.24 102.135 200.721 152 176 160 -1281 
100.241 102.14 200.718 152 176 162 -1189 
100.241 102.138 200.717 156 184 166 -1205 
100.241 102.138 200.715 158 186 164 -1210 
100.241 102.14 200.713 144 178 160 -1184 
100.241 102.14 200.712 146 178 168 -1208 
100.241 102.138 200.711 148 178 170 -1220 
100.241 102.138 200.709 152 178 168 -1216 
100.241 102.139 200.708 158 180 172 -1203 
100.241 102.138 200.706 150 168 174 -1231 
100.241 102.139 200.704 144 170 166 -1225 
100.242 102.14 200.705 150 170 172 -1227 
100.242 102.14 200.706 158 180 166 -1225 
100.242 102.141 200.708 156 180 162 -1210 
100.242 102.14 200.71 150 176 168 -1204 
100.242 102.14 200.711 148 178 174 -1201 
100.242 102.14 200.712 144 176 158 -1192 
100.242 102.14 200.714 148 180 156 -1215 
100.242 102.14 200.716 162 184 176 -1212 
100.242 102.139 200.717 154 176 166 -1198 
100.242 102.139 200.719 160 182 166 -1209 
100.242 102.138 200.721 160 184 170 -1313 
100.242 102.136 200.723 146 172 168 -1387 
100.242 102.134 200.725 150 182 166 -1413 
100.242 102.135 200.727 148 178 166 -1411 
100.242 102.137 200.727 148 174 168 -1415 
100.242 102.134 200.73 154 178 164 -1406 
100.242 102.135 200.731 136 160 140 -1397 
100.242 102.136 200.732 134 158 142 -1406 
100.242 102.134 200.734 138 158 152 -1416 
100.241 102.134 200.736 146 170 164 -1410 
100.242 102.135 200.737 146 172 158 -1402 
100.242 102.135 200.738 148 176 158 -1403 
100.242 102.135 200.74 144 174 162 -1410 
100.242 102.134 200.742 150 170 176 -1409 
100.241 102.134 200.743 146 170 164 -1386 
100.242 102.136 200.744 140 172 154 -1312 
100.242 102.138 200.745 144 174 166 -1359 
100.242 102.139 200.746 154 176 184 -1482 
100.243 102.144 200.746 140 160 166 -1556 
100.244 102.144 200.745 146 168 168 -1533 
100.243 102.14 200.745 144 174 178 -1409 
100.243 102.137 200.745 138 172 166 -1310 
100.243 102.138 200.743 144 172 154 -1352 
100.243 102.137 200.742 148 168 160 -1410 
