# .PCD v0.7 - Point Cloud Data file format
VERSION 0.7
FIELDS x y z rgb
SIZE 4 4 4 4
TYPE F F F U
COUNT 1 1 1 1
WIDTH 1114
HEIGHT 1
VIEWPOINT 0 0 0 1 0 0 0
POINTS 1114
DATA ascii
-0.013051949 -0.24798702 0.75000006 8352117
-0.0092857145 -0.24857144 0.75000006 7830133
0.36214283 -0.24785712 0.75000006 8354170
0.36720401 -0.24804516 0.75099999 9145214
0.37287486 -0.24825768 0.75199991 9799811
0.37743959 -0.24769621 0.75227278 9669514
0.38223717 -0.24741429 0.75300002 8548972
0.3863351 -0.24700448 0.75299996 8286586
-0.060957145 -0.24024287 0.75300002 7107177
-0.057678781 -0.24106245 0.75299996 7826533
-0.05235143 -0.24167715 0.75300002 7169893
-0.047299996 -0.24295062 0.75250006 7170922
-0.042286672 -0.24296856 0.75255555 7828856
-0.037250478 -0.24284269 0.75216669 8485239
-0.032228574 -0.24278858 0.75199997 8418677
-0.027744761 -0.24268763 0.75080001 7367262
-0.023095237 -0.24333334 0.75000006 6250583
-0.018142859 -0.24442856 0.75000006 7038823
-0.013571429 -0.24404763 0.75000006 7827309
0.35826534 -0.24214287 0.75000006 8553083
0.36190474 -0.24357142 0.75000006 8418933
0.36722225 -0.24404761 0.75000006 8617854
0.37237489 -0.2428975 0.7507273 9012087
0.37777713 -0.24263084 0.75240004 9537405
0.38232157 -0.24256067 0.75290912 9401457
0.38582286 -0.2423943 0.75300002 8284792
-0.065260001 -0.23665714 0.75300002 7039322
-0.062391426 -0.23737428 0.75300002 7631210
-0.057159346 -0.23740126 0.7523846 8946552
-0.052281905 -0.23777525 0.75199991 8024171
-0.047268569 -0.23777525 0.75199991 7893868
-0.04225992 -0.23780167 0.7520833 7565162
-0.037737731 -0.23794053 0.75199991 7829877
-0.032743867 -0.23721118 0.75066668 8222831
-0.028333332 -0.23738095 0.75000006 6973542
-0.025 -0.23928572 0.75000006 7038293
0.35785717 -0.23928572 0.75000006 8810880
0.37264034 -0.23745905 0.75099999 10130578
0.37734795 -0.23760878 0.75209087 10985883
0.38173899 -0.2374403 0.75229996 11114891
0.38582286 -0.23737429 0.75300002 9799043
-0.066079594 -0.23163715 0.75299996 7173228
-0.0623364 -0.23286551 0.75233334 7239788
-0.057295244 -0.2327619 0.75199991 8358008
-0.052281901 -0.23276192 0.75199997 8158566
-0.047279045 -0.23281316 0.75216657 7959920
-0.042255238 -0.23276192 0.75199997 7629413
-0.037936088 -0.23262519 0.75155556 6842721
-0.032857139 -0.23214287 0.75000006 6973024
-0.028571429 -0.23214287 0.75000006 7039075
0.37285718 -0.23214287 0.75000006 10000792
0.37744403 -0.23232973 0.75059998 9801877
0.38287547 -0.23290518 0.75199997 10460050
0.38602671 -0.2327619 0.75200003 10198673
-0.10542 -0.22590001 0.75300002 7629428
-0.10255143 -0.22625858 0.75300002 7501940
-0.066981152 -0.22719088 0.75300008 6316369
-0.062322702 -0.22779875 0.75216657 7171177
-0.057295244 -0.2277486 0.75199991 7631470
-0.052281905 -0.22774857 0.75199991 7828842
-0.047268569 -0.22774862 0.75199991 7828851
-0.042387623 -0.22811791 0.75179994 8286055
-0.037868783 -0.22792509 0.75022227 7827044
-0.032857142 -0.22785713 0.75000006 8287847
-0.028571429 -0.22785717 0.75000006 7829355
0.37285715 -0.22928572 0.75000006 8484461
0.37728572 -0.229 0.75000006 8748159
0.38249305 -0.22835267 0.75028574 10129296
0.38534224 -0.22806096 0.75066668 10457743
-0.10653556 -0.22175652 0.75300002 8286576
-0.10255143 -0.22231431 0.75300008 8286825
-0.097961724 -0.22159715 0.75300008 8551532
-0.08175429 -0.22159714 0.75300002 8287855
-0.077690482 -0.22111906 0.75300002 8814971
-0.072431423 -0.22088002 0.75300002 8416860
-0.067404203 -0.22300695 0.75291681 5330247
-0.062336616 -0.22283417 0.75233328 8419697
-0.057295244 -0.22273523 0.75199991 8221806
-0.052281905 -0.22273524 0.75199997 8420199
-0.047452644 -0.22281194 0.75181812 8221803
-0.042281274 -0.22259904 0.75033337 8614508
-0.038333338 -0.22309524 0.75000006 8549227
-0.032571428 -0.22385716 0.75000006 8682613
-0.028469387 -0.22316326 0.75000006 8025971
0.37765309 -0.22153065 0.75000006 10061441
0.38228568 -0.22242856 0.75000006 9405325
0.38500002 -0.22285715 0.75000006 10327185
-0.10737584 -0.21729428 0.75300008 8156782
-0.10255143 -0.21729428 0.75300002 8420209
-0.098248579 -0.21729429 0.75300002 9009531
-0.081897721 -0.21700744 0.75300002 9076602
-0.077021137 -0.21715085 0.75300008 8485498
-0.072399363 -0.21719873 0.75266671 8683123
-0.067321911 -0.21772192 0.75199991 7564127
-0.062424067 -0.21786475 0.75181812 8616822
-0.057256032 -0.2182935 0.75149995 8683384
-0.052266035 -0.21837397 0.75177777 9142642
-0.047900952 -0.21805078 0.75066668 8354676
-0.04286683 -0.21790588 0.75016671 8222580
-0.038214289 -0.21892858 0.75000006 8352363
0.37357146 -0.21642858 0.75000006 8814987
0.37785715 -0.21714287 0.75000006 9471368
0.38238096 -0.21809524 0.75000006 9930642
0.38500002 -0.21857144 0.75000006 10392982
-0.11713333 -0.21060096 0.75300002 9537922
-0.1122727 -0.2117165 0.75300002 8879737
-0.10757142 -0.21227431 0.75300014 8747892
-0.10255143 -0.21227431 0.75300008 8485992
-0.097838774 -0.21237673 0.75300014 9077627
-0.085340001 -0.21012287 0.75300002 7827055
-0.082341045 -0.21207872 0.75300008 8485234
-0.077570185 -0.21264051 0.75253844 8154735
-0.072335236 -0.21270858 0.75199997 8552570
-0.067307465 -0.21266143 0.75183326 8879980
-0.062016953 -0.21248552 0.75020003 8156783
-0.057142857 -0.21285719 0.75000006 7368807
-0.052142862 -0.21285717 0.75000006 7960946
-0.047857139 -0.21285717 0.75000006 8090743
-0.042857148 -0.21285714 0.75000006 7893879
-0.03871429 -0.2124286 0.75000006 8482930
-0.12597811 -0.20629811 0.75300002 10322820
-0.12263143 -0.20582001 0.75300002 9271165
-0.11718114 -0.20739774 0.75300008 8748413
-0.11259142 -0.20725428 0.75300002 8552829
-0.1075358 -0.20718597 0.75274998 8945536
-0.1025361 -0.20722392 0.75288892 8618363
-0.097531438 -0.20725431 0.75300008 9211005
-0.092870004 -0.20617858 0.75300002 8945012
-0.086751625 -0.20662591 0.75280005 9074800
-0.082373865 -0.20700985 0.75211108 9010552
-0.077212371 -0.20757048 0.75206661 8681326
-0.07231953 -0.20764969 0.75183326 8354669
-0.067311071 -0.20766036 0.75187492 8287852
-0.062156666 -0.20718841 0.75016671 8551293
-0.057142857 -0.20714287 0.75000006 8615280
-0.052142859 -0.20714287 0.75000006 8814453
-0.048174605 -0.20753969 0.75000006 7830126
-0.045000002 -0.20928572 0.75000006 7958388
-0.13267143 -0.20008287 0.75300002 8156781
-0.12693429 -0.20194745 0.75300008 8877429
-0.12377886 -0.20237772 0.75300002 8025718
-0.1167639 -0.20229949 0.75300008 8617078
-0.11269058 -0.20258372 0.75270003 8093041
-0.10744024 -0.20270438 0.7520833 8223606
-0.10250604 -0.2028622 0.75266671 8946041
-0.097615376 -0.20250343 0.75285721 8553336
-0.092355527 -0.20263782 0.75290012 9275004
-0.087672047 -0.20217654 0.7527858 10654861
-0.082361907 -0.20268191 0.75199997 9998468
-0.077348568 -0.20268191 0.75199991 9208947
-0.072251014 -0.20244233 0.75111115 8751482
-0.067262545 -0.20250316 0.7513333 8355432
-0.062271755 -0.20256254 0.75155556 7895409
-0.057142857 -0.20214288 0.75000006 8353133
-0.052551024 -0.20234694 0.75000006 8948082
-0.049285717 -0.20285715 0.75000006 8946541
-0.1364962 -0.19625811 0.75300002 8814973
-0.13249214 -0.197035 0.75300002 8680055
-0.12757109 -0.19706011 0.75290924 8548975
-0.12283634 -0.19680449 0.75299996 8616053
-0.11740191 -0.19706026 0.75290924 8682359
-0.11235299 -0.19754468 0.75227267 9009779
-0.10742857 -0.19766857 0.75199991 8682355
-0.10246095 -0.19775619 0.75233334 8355191
-0.097299598 -0.19736163 0.75199991 9077889
-0.092518784 -0.19747324 0.75199991 9276293
-0.087254576 -0.19727349 0.7523846 9274499
-0.082361907 -0.19766855 0.75199991 9538692
-0.077298574 -0.19825286 0.75149995 9079422
-0.072164655 -0.19791619 0.75022227 8882042
-0.067203484 -0.19803397 0.75066668 8946545
-0.06223534 -0.19815153 0.75111115 7829106
-0.057142857 -0.19785714 0.75000006 8749428
-0.05309524 -0.19880955 0.75000006 8420205
-0.14163572 -0.19111857 0.75300002 9142126
-0.13769144 -0.1921943 0.75300014 9076343
-0.13261269 -0.19282666 0.75266677 9143162
-0.12755309 -0.19276248 0.75241667 9078654
-0.12259504 -0.19285494 0.75277776 9339506
-0.11753383 -0.19278382 0.7525 8551295
-0.11245872 -0.19268394 0.75211114 9076861
-0.10742858 -0.19265525 0.75199991 9141628
-0.10229418 -0.19242838 0.75111115 7959669
-0.096960768 -0.19263504 0.75080001 8617341
-0.092333548 -0.19254224 0.75155556 8946814
-0.087804958 -0.19279848 0.75199997 10129546
-0.08270251 -0.19210686 0.75036371 9538177
-0.077142864 -0.19357143 0.75000006 9867397
-0.072142862 -0.19357143 0.75000006 8290419
-0.067142859 -0.19357143 0.75000006 8224627
-0.062380955 -0.19404763 0.75000006 7304558
-0.058571428 -0.19500001 0.75000006 7762024
-0.1425087 -0.18696415 0.75287509 11710375
-0.13756953 -0.1870092 0.7523334 11447972
-0.13249524 -0.1876419 0.75199991 11181715
-0.12748191 -0.1876419 0.75199991 11314077
-0.12246858 -0.1876419 0.75199991 11772577
-0.11805207 -0.18800001 0.75199991 11312543
-0.11291734 -0.18795811 0.75040001 11573913
-0.10821429 -0.18892857 0.75000006 10913667
-0.092072576 -0.18772097 0.75059998 10983831
-0.088091433 -0.18764192 0.75199991 11379871
-0.083285712 -0.18800002 0.75000006 11181716
-0.14629714 -0.18143715 0.75300002 11777210
-0.1425219 -0.18262857 0.75199997 12039348
-0.13750859 -0.18262859 0.75199991 12039353
-0.13245609 -0.18257505 0.75177777 11908541
-0.12789546 -0.18219726 0.75022227 12039354
-0.12293827 -0.18226461 0.75050002 12104379
-0.11784039 -0.18262361 0.75080001 12498874
-0.11357143 -0.18266235 0.75000006 12236471
-0.092191242 -0.18281144 0.75040001 11909040
-0.087936506 -0.18230478 0.75066668 12038576
-0.083571434 -0.18392858 0.75000006 11710898
-0.14701429 -0.17856857 0.75300002 11709366
-0.1425219 -0.17761524 0.75199991 12039610
-0.13750859 -0.17761524 0.75199991 12104889
-0.13249524 -0.17761524 0.75199991 12039610
-0.12757994 -0.17750427 0.75173324 11908533
-0.12251385 -0.17741612 0.7509231 11974326
-0.11784223 -0.17765935 0.75066668 12433081
-0.11293651 -0.17801589 0.75000006 12170682
-0.095000006 -0.17928572 0.75000006 12105656
-0.092165202 -0.17738113 0.75018191 10923443
-0.087896518 -0.17722191 0.75033337 10003380
-0.14733303 -0.17251271 0.75300002 12367034
-0.14252192 -0.17260191 0.75199997 12236477
-0.13750857 -0.17260192 0.75199991 12039352
-0.13249524 -0.17260192 0.75199997 12170938
-0.12748191 -0.17260192 0.75199991 12106426
-0.12269224 -0.17254367 0.75085717 12236986
-0.11785715 -0.17357144 0.75000006 12303032
-0.088035718 -0.17232144 0.75000006 593462
-0.14719358 -0.16727358 0.75300002 12433596
-0.1425219 -0.16758858 0.75199991 12171709
-0.13767385 -0.16808438 0.75199991 12367806
-0.13249524 -0.16830476 0.75199997 12237756
-0.12761559 -0.16835429 0.75163633 12303296
-0.12357143 -0.16821429 0.75000006 12303293
-0.088095248 -0.16833335 0.75000006 1968662
-0.14629716 -0.16135715 0.75300002 12172220
-0.14252192 -0.16257523 0.75199997 12236988
-0.13702479 -0.16274336 0.7501334 12368060
-0.13214286 -0.16285716 0.75000006 12105659
-0.12833333 -0.16309524 0.75000006 12368571
-0.16135715 -0.15633714 0.75300002 12368577
-0.15807877 -0.15756652 0.75300014 12236736
-0.15227334 -0.1565762 0.75300002 12041149
-0.14734529 -0.15738527 0.75300014 12303296
-0.14245936 -0.15749207 0.75166661 12433601
-0.13733627 -0.15766917 0.7501539 12368062
-0.13214286 -0.15785715 0.75000006 12237756
-0.12892857 -0.1582143 0.75000006 12432830
-0.16637716 -0.15275143 0.75300002 12368317
-0.16279143 -0.15275145 0.75300002 12105916
-0.15777142 -0.15275143 0.75300008 12236732
-0.15272911 -0.15272911 0.75288898 11909817
-0.14763367 -0.15265064 0.7525 12368574
-0.14219071 -0.15237263 0.75025004 12368320
-0.13711649 -0.15305349 0.7501539 12237249
-0.13214286 -0.15328571 0.75000006 12565182
-0.12928572 -0.15357143 0.75000006 12368319
-0.1666162 -0.14749238 0.75300002 12368575
-0.16279143 -0.14773144 0.75300008 12106172
-0.15777141 -0.14773147 0.75300014 12367295
-0.15263373 -0.14761724 0.75241667 12368571
-0.14741392 -0.14741345 0.75137496 12499645
-0.14357144 -0.14928572 0.75000006 12302781
-0.13928571 -0.14928572 0.75000006 12172736
-0.16761585 -0.14258105 0.75300008 12368060
-0.16276762 -0.14269058 0.75288898 12171455
-0.1576847 -0.14263277 0.75258332 12367804
-0.15234679 -0.14233302 0.75100005 12368062
-0.14717604 -0.14217477 0.75016671 12302789
-0.17713428 -0.13640058 0.75300002 12040121
-0.17262653 -0.13656449 0.75299996 12040121
-0.16778392 -0.13766883 0.75287509 12301757
-0.16261205 -0.13754001 0.75216669 12433343
-0.15810303 -0.13735794 0.75116664 12367807
-0.15304095 -0.13803715 0.75020003 12368062
-0.14707793 -0.13798703 0.75000006 12630465
-0.18072 -0.13195428 0.75300002 11908540
-0.17708224 -0.13263269 0.75277781 12170937
-0.17262742 -0.13251588 0.75211108 11974842
-0.16757023 -0.13248102 0.75191665 12171452
-0.16238435 -0.13233905 0.75111115 12302016
-0.1582143 -0.13321429 0.75000006 12761025
-0.18717428 -0.12550001 0.75300002 12236989
-0.18155669 -0.12729286 0.75300008 11842234
-0.17701732 -0.12756667 0.7525 11842746
-0.1722963 -0.12796995 0.75066668 12040120
-0.16770571 -0.12810229 0.75059998 11909310
-0.16290076 -0.12789163 0.75020003 12367806
-0.19004287 -0.12191429 0.75300002 11907512
-0.18717428 -0.12263145 0.75300002 11841980
-0.1821543 -0.12263142 0.75300008 11908276
-0.17700425 -0.12254095 0.75244451 11973310
-0.17241096 -0.12304651 0.75116664 12170939
-0.16785716 -0.12285715 0.75000006 12170686
-0.16370131 -0.12305196 0.75000006 12433339
-0.19649714 -0.11617715 0.75300002 11317432
-0.19099905 -0.11665524 0.75300002 11972793
-0.18717428 -0.11761145 0.75300008 11908023
-0.18244444 -0.11780538 0.75292867 11908536
-0.17746823 -0.11741237 0.75207686 12039867
-0.17244974 -0.11806752 0.75133336 12105662
-0.16833334 -0.11833334 0.75000006 12237244
-0.16500001 -0.11857143 0.75000006 12433852
-0.2008 -0.11259142 0.75300002 11709365
-0.19721429 -0.11259142 0.75300002 11775926
-0.19219428 -0.11259144 0.75300008 12103607
-0.18717428 -0.11259144 0.75300002 12104120
-0.18279113 -0.11254159 0.75266671 12104631
-0.17734227 -0.11259238 0.7515384 12170682
-0.17214286 -0.11285714 0.75000006 11909311
-0.16880953 -0.11238096 0.75000006 12171456
-0.20080002 -0.10757144 0.75300002 11710132
-0.19721429 -0.10757142 0.75300008 11906998
-0.1921943 -0.10757143 0.75300014 11580344
-0.187133 -0.10754811 0.75283337 11842745
-0.18278208 -0.10763732 0.75209099 11842488
-0.17753714 -0.10809684 0.75166661 12105661
-0.17214288 -0.10785715 0.75000006 11974078
-0.16928571 -0.10857144 0.75000006 11450048
-0.2008 -0.10255143 0.75300002 11579061
-0.1971854 -0.10253608 0.75288898 11579572
-0.19274022 -0.10246085 0.75233334 11645366
-0.18766278 -0.1024266 0.7520833 11775929
-0.18231705 -0.10260562 0.75129998 11710904
-0.1773077 -0.10335165 0.75000006 11974583
-0.17261906 -0.10404762 0.75000006 12302013
-0.21012287 -0.095380001 0.75300002 11250613
-0.20725429 -0.095380001 0.75300002 11579057
-0.20160703 -0.097219057 0.75280011 11514551
-0.1975452 -0.097503468 0.75227278 11842742
-0.19253068 -0.097767241 0.75040007 11842487
-0.18790875 -0.097823545 0.7507273 12104889
-0.18341494 -0.098377466 0.75033337 12300477
-0.21178782 -0.092487246 0.75280005 10988720
-0.20757495 -0.092292383 0.75227278 11382453
-0.20253366 -0.092320532 0.75144446 11645367
-0.19816811 -0.092383809 0.75050002 11711414
-0.19500001 -0.093571432 0.75000006 11973816
-0.22016287 -0.085340001 0.75300002 11380657
-0.21675645 -0.087312147 0.75300002 11315121
-0.21241969 -0.087452702 0.75266671 11249327
-0.2073883 -0.087375239 0.75199991 11447734
-0.2027615 -0.087827727 0.75111115 11317687
-0.19928572 -0.088571429 0.75000006 11579574
-0.22805144 -0.081037149 0.75300002 10591141
-0.22052144 -0.08247143 0.75300002 11117744
-0.21729429 -0.082471423 0.75300002 11643823
-0.21239327 -0.082441561 0.75272733 11250348
-0.20721085 -0.08234001 0.75179994 11381934
-0.20254244 -0.082398519 0.75088888 11710643
-0.23665714 -0.07673429 0.75300002 10195350
-0.23211525 -0.075778097 0.75300002 10393759
-0.22733428 -0.07745143 0.75300008 10592932
-0.22185792 -0.077255845 0.75300008 11117487
-0.21735924 -0.077231646 0.75246167 11642793
-0.21270905 -0.077349208 0.75200003 11577010
-0.20748904 -0.077272378 0.75124997 11315887
-0.20273927 -0.077427946 0.75044447 11644340
-0.23594001 -0.07243143 0.75300002 10919324
-0.23215872 -0.072431423 0.75300008 10000286
-0.22733429 -0.07243143 0.75300002 10657962
-0.22293271 -0.072400004 0.75266665 10921134
-0.21803582 -0.072440766 0.75159997 11381167
-0.21266235 -0.072012991 0.75000006 11511987
-0.20742857 -0.072428569 0.75000006 11381678
-0.20271429 -0.072428569 0.75000006 11644341
-0.23723085 -0.066981152 0.75300008 9408397
-0.23271161 -0.067308098 0.75183338 10000028
-0.22785969 -0.067368098 0.75135714 10263199
-0.22276233 -0.067105167 0.7507143 10592934
-0.21790588 -0.067158252 0.75016671 11119792
-0.21357144 -0.067222223 0.75000006 11512499
-0.20761906 -0.067380957 0.75000006 10921909
-0.20309524 -0.06666667 0.75000006 10922930
-0.23730469 -0.062372804 0.75277781 9671317
-0.23235048 -0.062198095 0.75066668 10392992
-0.22785717 -0.062142864 0.75000006 10263193
-0.22285716 -0.06214286 0.75000006 10395809
-0.21785712 -0.062142856 0.75000006 10988715
-0.21357143 -0.062142864 0.75000006 11447474
-0.20714286 -0.063571431 0.75000006 11445681
-0.20357144 -0.063571431 0.75000006 10726068
-0.24741429 -0.05522 0.75300002 7171178
-0.24131858 -0.055578575 0.75300002 7496031
-0.23724295 -0.057340562 0.75258332 10067612
-0.23240207 -0.057206824 0.75083333 10722465
-0.22785716 -0.057142854 0.75000006 10526366
-0.22285715 -0.057142861 0.75000006 10788265
-0.21799998 -0.05757143 0.75000006 11118507
-0.21410714 -0.057500005 0.75000006 11380656
-0.24728286 -0.051749907 0.75260007 7169386
-0.2421079 -0.052107345 0.75242859 7102821
-0.23735069 -0.052101817 0.75127274 10394264
-0.23214287 -0.052142859 0.75000006 10527142
-0.22806123 -0.052551024 0.75000006 10721952
-0.22285715 -0.053571429 0.75000006 10853797
-0.25028285 -0.04518 0.75300002 6975074
-0.24742538 -0.047504332 0.75263637 7103845
-0.24283555 -0.047680099 0.75169998 6774372
-0.23714286 -0.047857147 0.75000006 10723495
-0.23255102 -0.048061222 0.75000006 11052974
-0.22857144 -0.049285717 0.75000006 10853543
-0.2514303 -0.042024575 0.75300002 7498342
-0.24763715 -0.042049054 0.75150001 7630178
-0.24274588 -0.042771429 0.75028574 6838623
-0.23714285 -0.042857144 0.75000006 11382447
-0.23261908 -0.042619053 0.75000006 11643825
-0.25295594 -0.037262779 0.75241667 7827815
-0.2481188 -0.038048811 0.75025004 8155746
-0.24314287 -0.03814286 0.75000006 7562083
-0.23714286 -0.037857145 0.75000006 11118768
-0.23214287 -0.037857145 0.75000006 11840948
-0.22833335 -0.038809527 0.75000006 11447214
-0.25263038 -0.032205183 0.75144446 6972772
-0.24928574 -0.033095241 0.75000006 7499108
-0.2362245 -0.033979591 0.75000006 11317680
-0.23250002 -0.034642857 0.75000006 11710387
-0.25602001 -0.026534287 0.75300002 7629413
-0.25283602 -0.027739048 0.75111109 7104092
-0.24928573 -0.028571431 0.75000006 7433315
-0.25673714 -0.02223143 0.75300002 7365994
-0.25340575 -0.023035429 0.75120008 6973024
-0.26032287 -0.016494287 0.75300002 7038048
-0.25723118 -0.017009871 0.75272733 7235173
-0.25379685 -0.017871747 0.75066668 7761001
-0.26032287 -0.01219143 0.75300002 7495767
-0.25737873 -0.012187619 0.75277781 7956834
-0.25357145 -0.012857143 0.75000006 8089965
-0.26032287 -0.0078885714 0.75300002 7233890
-0.25785097 -0.0072340262 0.75263637 7234912
-0.25452381 -0.0069047622 0.75000006 7300704
-0.27036285 -0.00071714289 0.75300002 7696480
-0.26749432 -0.00071714289 0.75300002 6841945
-0.26319143 -0.0019721428 0.75300002 6446680
-0.25824043 -0.0021464552 0.75111115 6841178
-0.27610001 0.0035857144 0.75300002 6976351
-0.27159226 0.0023563264 0.75299996 6904666
-0.26749432 0.0021514287 0.75300002 6575962
-0.26311398 0.0021503705 0.75277776 6183767
-0.25808761 0.0021447618 0.75066668 6643802
-0.28040287 0.0071714288 0.75300002 6645073
-0.27712449 0.0066591837 0.75299996 6450531
-0.27229908 0.0073131439 0.75280011 6446424
-0.26731667 0.0071657146 0.7525 6576984
-0.26287121 0.0071624606 0.7520833 6314077
-0.259 0.0067142858 0.75000006 6446166
-0.28040287 0.013625715 0.75300002 7299420
-0.27782115 0.011904573 0.75300002 6577495
-0.27245447 0.012188888 0.75283337 7433315
-0.26713905 0.012175239 0.75199997 6972765
-0.26222098 0.012146031 0.75022227 6773084
-0.29044285 0.019362858 0.75300002 6705739
-0.28614002 0.019362858 0.75300002 6184024
-0.28234941 0.017518777 0.75300014 6972767
-0.27744213 0.017205 0.7527501 6774364
-0.27228883 0.017196788 0.75237501 7366751
-0.26678509 0.017165082 0.75099999 7167836
-0.26242861 0.016857142 0.75000006 7167847
-0.29044285 0.02223143 0.75300002 6642005
-0.28711024 0.022431839 0.75285721 6904921
-0.28230414 0.022211112 0.75233334 6708049
-0.27716574 0.022201903 0.75199997 6445140
-0.27215239 0.022201905 0.75199991 6577499
-0.26682457 0.022175238 0.75111115 6905433
-0.26214287 0.022142859 0.75000006 7233122
-0.29044285 0.025817145 0.75300002 6839390
-0.28730571 0.027042685 0.75263649 6840410
-0.28217906 0.027215239 0.75199991 6184024
-0.27716568 0.027215241 0.75199991 6379860
-0.27235621 0.026999731 0.75171423 6775132
-0.26714233 0.027378503 0.75085717 7497054
-0.26214287 0.027142862 0.75000006 7431522
-0.29618001 0.033705715 0.75300002 5395002
-0.29187712 0.032886121 0.75299996 6312785
-0.28732011 0.032242436 0.75233334 6774103
-0.28217909 0.032228578 0.75199991 6773839
-0.27708381 0.032218624 0.75177777 6577754
-0.27246627 0.032180108 0.75088888 6839640
-0.26726159 0.032156508 0.75033337 7432030
-0.26357144 0.032142859 0.75000006 7301219
-0.29665813 0.037769526 0.75300002 5985614
-0.29235217 0.037260123 0.75237507 6050900
-0.28719237 0.037241902 0.75199991 6314588
-0.28248599 0.037037279 0.75199991 6118484
-0.27757144 0.037428573 0.75000006 6709599
-0.27285716 0.037142862 0.75000006 6774616
-0.26728573 0.037 0.75000006 6315098
-0.26357144 0.035714287 0.75000006 6575712
-0.30096099 0.043267619 0.75300002 6446165
-0.29739535 0.042280003 0.75244439 6642000
-0.29220572 0.042255241 0.75199991 5919578
-0.28719237 0.042255241 0.75199997 6246994
-0.28239492 0.042180322 0.75066668 5854281
-0.27785715 0.042142861 0.75000006 6248023
-0.27285716 0.042142864 0.75000006 6446175
-0.30171341 0.048041273 0.75288898 6051668
-0.29721969 0.04726778 0.75199991 5919309
-0.29251269 0.047063947 0.75199991 5920339
-0.28761575 0.047251776 0.7507273 5722704
-0.28291118 0.047151428 0.75014293 6577741
-0.27785715 0.046428569 0.75000006 6905165
-0.27316329 0.046938777 0.75000006 6182479
-0.31195715 0.05235143 0.75300002 5722962
-0.30789337 0.052829523 0.75300002 5853523
-0.30250114 0.052328099 0.75266671 5919574
-0.29695687 0.052235559 0.75133336 6509652
-0.29257649 0.05221926 0.75111109 6248789
-0.28785715 0.052142859 0.75000006 6247764
-0.28442857 0.051857144 0.75000006 5920338
-0.31238741 0.057658292 0.75300008 5590091
-0.30748454 0.057339132 0.75258344 5918032
-0.30223238 0.057295244 0.75199991 6050637
-0.29662719 0.057180796 0.75050002 6116432
-0.29214287 0.057142857 0.75000006 6050381
-0.28785715 0.057142857 0.75000006 6181457
-0.28452381 0.057142857 0.75000006 5984832
-0.31841144 0.062750004 0.75300002 5525067
-0.31286988 0.062521823 0.75300008 5786439
-0.30783087 0.062139455 0.75242859 6181970
-0.30257553 0.06234169 0.75107694 6050644
-0.29703051 0.062209528 0.75080001 5985110
-0.29245877 0.062575236 0.75028574 5067091
-0.28785715 0.062551022 0.75000006 6180945
-0.28238097 0.063095234 0.75000006 5722708
-0.27928573 0.063571431 0.75000006 5325121
-0.31757376 0.068307079 0.75271428 5328459
-0.31241503 0.067354888 0.75237501 5656911
-0.30745056 0.067533165 0.75218183 5985360
-0.30248842 0.066912651 0.75085717 5920078
-0.29731944 0.067004688 0.75030774 5657680
-0.29255104 0.066224493 0.75000006 5393994
-0.28842854 0.065857142 0.75000006 5984589
-0.28271431 0.065285712 0.75000006 5590610
-0.32128 0.07243143 0.75300002 5984075
-0.31727239 0.072335236 0.75199997 5919308
-0.31225905 0.072335236 0.75199991 5526345
-0.30796194 0.072335243 0.75200003 6245959
-0.30328572 0.072000012 0.75000006 6247244
-0.29928574 0.070714287 0.75000006 5986635
-0.33142242 0.078168578 0.75299996 5392701
-0.32773432 0.078168578 0.75300002 5459008
-0.32317069 0.077907801 0.75300008 5195844
-0.31756237 0.077063709 0.75155556 6114635
-0.31265539 0.077180356 0.75037503 5787472
-0.30790892 0.077244133 0.75099999 5458761
-0.30373016 0.077063493 0.75000006 5787218
-0.33117658 0.08247143 0.75300002 5916475
-0.32773432 0.082471423 0.75300002 5655615
-0.3227143 0.08247143 0.75300008 5392700
-0.31734595 0.082514048 0.75174999 6113102
-0.31245843 0.082290165 0.7513333 5655627
-0.30768245 0.08200191 0.75057143 5458247
-0.30428573 0.08214286 0.75000006 5327177
-0.33132002 0.08749143 0.75300002 5721671
-0.32773432 0.08749143 0.75300008 6180418
-0.32268748 0.087483987 0.75293761 5196866
-0.31727239 0.087375246 0.75199991 5393225
-0.31276745 0.087316036 0.75149995 4804167
-0.30801588 0.087222219 0.75000006 5786955
-0.30357143 0.086428575 0.75000006 5657159
-0.33634001 0.093228579 0.75300002 4670775
-0.33268908 0.09264183 0.75300008 4802616
-0.32754046 0.092456408 0.75255561 5392446
-0.3227143 0.092511438 0.75300008 5458756
-0.31727239 0.092388578 0.75199997 5721400
-0.31214288 0.09214285 0.75000006 5591106
-0.30892861 0.091785714 0.75000006 5918034
-0.30357143 0.091428578 0.75000006 5525310
-0.34351143 0.09968286 0.75300002 5063739
-0.33662686 0.097961716 0.75300002 4998974
-0.33275428 0.097531423 0.75300014 4999235
-0.32762516 0.097499453 0.7527501 5589576
-0.3227143 0.097531416 0.75300014 5524041
-0.31765568 0.097133756 0.75177777 5458494
-0.31300002 0.096571431 0.75000006 5458498
-0.30928573 0.095714286 0.75000006 5655629
-0.34351143 0.10255145 0.75300002 5062965
-0.33753917 0.10271347 0.75287509 5325892
-0.33249739 0.10247183 0.75241661 5393738
-0.32729906 0.10241523 0.75199997 5590849
-0.32239228 0.10244944 0.75225002 5655620
-0.31785715 0.10357143 0.75000006 5786959
-0.34745574 0.10828857 0.75300002 5258819
-0.34270915 0.10754435 0.75281268 4865335
-0.33751297 0.10748738 0.75241679 5128513
-0.33231243 0.10742858 0.75199991 5392961
-0.32729909 0.10742858 0.75199991 4868934
-0.32242891 0.10728535 0.75199991 5524553
-0.31785715 0.105 0.75000006 5786964
-0.35068288 0.11259144 0.75300002 5193789
-0.34781432 0.11259144 0.75300002 4472132
-0.34241542 0.11246683 0.75216657 5721677
-0.33732572 0.11244191 0.75199997 6378825
-0.33231238 0.1124419 0.75199991 5459777
-0.32729906 0.11244191 0.75199997 3947586
-0.32290685 0.11240825 0.75177777 4998985
-0.35642001 0.11617714 0.75300002 5985099
-0.35163906 0.11713334 0.75300002 5523787
-0.34781432 0.11761145 0.75300008 5064007
-0.34283489 0.11762051 0.75199991 5657673
-0.33723825 0.11708331 0.75053334 6117198
-0.33231241 0.11745524 0.75199991 4868418
-0.32738966 0.11707768 0.75111115 2895919
-0.32300001 0.11557142 0.75000006 4603197
-0.35642001 0.12334858 0.75300002 5326145
-0.35263869 0.12276182 0.75300008 5916745
-0.34755769 0.12254075 0.75244451 5854276
-0.34237722 0.12248214 0.7520833 5525063
-0.33696437 0.12198476 0.75028574 5592130
-0.33267647 0.12157661 0.75028574 4998723
-0.3269048 0.12119048 0.75000006 3353135
-0.36550382 0.12812953 0.75300002 5457994
-0.36247587 0.12820922 0.75300002 5456449
-0.35756868 0.1280302 0.75270003 5655099
-0.35242462 0.12750286 0.75212497 5128001
-0.34719813 0.12742445 0.75166661 5128002
-0.34236011 0.12729296 0.75173324 5390917
-0.33761907 0.12666667 0.75000006 5061682
-0.33452383 0.1254762 0.75000006 4799798
-0.3755438 0.13362761 0.75300002 5265487
-0.37214243 0.13265163 0.75288892 4732737
-0.3671951 0.13247646 0.75263637 4931640
-0.36210659 0.13269097 0.75229996 4605760
-0.35743207 0.1325146 0.75211114 4604220
-0.35277617 0.13172476 0.75033337 4076844
-0.34737289 0.13080144 0.75050002 4075059
-0.34188285 0.13136476 0.75100011 5392191
-0.33880952 0.13214286 0.75000006 5459515
-0.37578285 0.13769142 0.75300002 4472889
-0.37182689 0.13755421 0.75225002 4274496
-0.36740574 0.13750857 0.75199991 5130812
-0.36245278 0.13753121 0.75212491 4867135
-0.35801652 0.13690858 0.75133342 4866874
-0.35428572 0.13571429 0.75000006 3555375
-0.33857143 0.13500001 0.75000006 5327933
-0.38080287 0.14414571 0.75300002 4146235
-0.37678689 0.14299828 0.75300002 3947054
-0.37231362 0.14268623 0.75218183 4276019
-0.36740574 0.14252192 0.75199997 4405301
-0.36235702 0.14222626 0.75044447 4537641
-0.35892859 0.14178571 0.75000006 4736075
-0.38128099 0.14820953 0.75300002 4734531
-0.37717819 0.14786118 0.75244451 4866101
-0.37230176 0.14716192 0.75114286 5066049
-0.36766955 0.14746724 0.75020003 4801345
-0.36285719 0.14714286 0.75000006 3948595
-0.35928574 0.14714287 0.75000006 4078642
-0.38182738 0.15254653 0.75299996 5587021
-0.37760031 0.1526162 0.75233334 5326401
-0.37280574 0.15241334 0.75133336 4473154
-0.36766881 0.15232667 0.75020003 4669753
-0.36275044 0.15205023 0.75018191 3554616
-0.35928574 0.15214287 0.75000006 4536649
-0.38510573 0.15992287 0.75300002 4537918
-0.38207781 0.15816984 0.75300002 5456974
-0.37760031 0.15763174 0.75233334 4603710
-0.37256226 0.15770516 0.75199991 4276282
-0.36743721 0.15706508 0.7513333 5127998
-0.36288384 0.1575329 0.75107694 4144191
-0.35900003 0.15699999 0.75000006 4012603
-0.39514571 0.16135715 0.75300002 3814168
-0.39371145 0.16279143 0.75300002 3747607
-0.3863351 0.16320123 0.75299996 4274492
-0.38223714 0.16297072 0.75300002 4339514
-0.37777022 0.16233893 0.75185716 3881529
-0.37271109 0.16228572 0.75066668 3949370
-0.36785713 0.16119049 0.75000006 5064764
-0.36305067 0.16194287 0.75040001 4013874
-0.35928574 0.1607143 0.75000006 3553057
-0.38694978 0.16801633 0.75300014 4339516
-0.38194087 0.16768055 0.75241679 4142903
-0.37886477 0.1661562 0.75200003 4537147
-0.375 0.16500001 0.75000006 4145701
-0.3863607 0.17265216 0.75300002 3027256
-0.3820686 0.17275493 0.75266671 4667190
-0.38625318 0.17627373 0.75300002 4008504
-0.38188776 0.17665754 0.75271428 4140844
-0.40375143 0.18072 0.75300002 4600889
-0.39514571 0.18358858 0.75300002 4601656
-0.39207226 0.18328121 0.75299996 4667447
-0.38712043 0.1830036 0.75288898 5852229
-0.38233006 0.1826037 0.75255561 4536377
-0.37928572 0.18357143 0.75000006 3483959
-0.39514574 0.18717431 0.75300002 4802373
-0.39245647 0.18735357 0.75300002 4144950
-0.38751671 0.18753681 0.75236362 4272437
-0.38252506 0.18732817 0.75075001 4009795
-0.37928572 0.18714288 0.75000006 4537155
-0.40518573 0.19434573 0.75300002 5389388
-0.39166251 0.19188693 0.75299996 3223852
-0.38760382 0.19236802 0.75200003 3944746
-0.38214287 0.1907143 0.75000006 5523019
-0.37928572 0.1907143 0.75000006 5657153
-0.40614191 0.19721429 0.75300002 5061178
-0.40281981 0.19739601 0.75260007 4602425
-0.39776894 0.1980775 0.75287509 4210489
-0.39256155 0.19774598 0.75254542 4340273
-0.38727835 0.19757064 0.75085717 3683116
-0.38357148 0.19690476 0.75000006 4536123
-0.40590286 0.2022343 0.75300002 3946285
-0.40213835 0.20227481 0.75290912 3880757
-0.3976301 0.20223351 0.75227267 3617579
-0.39249143 0.20232126 0.75066668 4273692
-0.38731459 0.20223273 0.75033337 4535862
-0.38238096 0.20190477 0.75000006 4536126
-0.37928572 0.20071429 0.75000006 3487801
-0.40518573 0.20725429 0.75300002 3158058
-0.40219885 0.20719334 0.75277781 3486507
-0.39766189 0.20707142 0.75233334 3814192
-0.39262703 0.20704611 0.75120002 3944235
-0.3878572 0.20714284 0.75000006 4206896
-0.40626144 0.21299142 0.75300002 3550241
-0.4021838 0.21220373 0.7527501 3092273
-0.39729711 0.2122743 0.75300014 2960172
-0.39279875 0.21242027 0.75242859 3550505
-0.3884286 0.21214287 0.75000006 3616047
-0.40697858 0.21765286 0.75300002 2894628
-0.40231717 0.21729428 0.75300002 3090725
-0.39747986 0.21755572 0.75266671 3616045
-0.39310589 0.2179433 0.75209087 3616563
-0.38833341 0.21738094 0.75000006 3812129
-0.40805429 0.22016287 0.75300002 3352351
-0.40231714 0.22231428 0.75300008 4143153
-0.39768201 0.222478 0.75209993 4803901
-0.39249057 0.22233993 0.75066668 3353394
-0.3878572 0.22157145 0.75000006 3156020
-0.40207136 0.22711749 0.75287509 4207658
-0.39761594 0.22755328 0.75199991 4933689
-0.39267489 0.22724383 0.75033337 3684398
-0.40633315 0.23393202 0.75300002 3485238
-0.40218404 0.2322769 0.7527501 3813415
-0.39728928 0.2324076 0.75085717 3618880
-0.39339286 0.23214285 0.75000006 3684665
-0.40621021 0.2375792 0.75299996 3613995
-0.40225798 0.2373395 0.75288898 3483689
-0.39735553 0.23757993 0.75199991 3945275
-0.39269352 0.23768108 0.75044447 4142396
-0.38857144 0.23928572 0.75000006 3615284
-0.41809431 0.24454574 0.75300002 1514018
-0.41271573 0.24418715 0.75300002 3287841
-0.40630129 0.24183652 0.75300002 4337712
-0.40204123 0.24237126 0.75272727 4404533
-0.39739189 0.24206001 0.75122231 4010555
-0.39285225 0.24228594 0.75044447 3616306
-0.38928574 0.2407143 0.75000006 3418675
-0.41645512 0.24700451 0.75299996 3744302
-0.41248712 0.24835186 0.75258344 4470067
-0.40800622 0.24788286 0.75225008 3946277
-0.40275511 0.24602042 0.75000006 4864829
-0.39928573 0.245 0.75000006 4274235
-0.39261904 0.2454762 0.75000006 3222312
-0.41665998 0.25195619 0.75300002 3157550
-0.41258889 0.25297457 0.7529 3157814
-0.40786603 0.25259176 0.75133342 3418393
-0.41608629 0.258028 0.75300002 3156783
-0.41199547 0.25760403 0.75260007 3222304
-0.40782169 0.25756976 0.75124997 3746858
-0.40428573 0.25714284 0.75000006 4075313
-0.42239714 0.264052 0.75300002 2826522
-0.41737714 0.26247433 0.75300014 2566955
-0.41244161 0.26253843 0.75250006 3288608
-0.40750328 0.26256913 0.75040007 3484967
-0.40255103 0.26295921 0.75000006 4205100
-0.39776525 0.26339 0.75050002 2894615
-0.39261901 0.26261908 0.75000006 2105117
-0.43674001 0.26892859 0.75300002 2960947
-0.43100289 0.26892859 0.75300002 3550754
-0.42885143 0.26892859 0.75300002 3156251
-0.41737714 0.2670162 0.75300002 2763045
-0.41259062 0.26685873 0.75255561 3550760
-0.40786731 0.26690289 0.75133342 3483172
-0.40285763 0.26675823 0.75030774 3157037
-0.39798978 0.2670531 0.75025004 2830627
-0.39357144 0.26571429 0.75000006 2762278
-0.43705022 0.2728425 0.75291681 2171943
-0.43215066 0.27261093 0.75272733 2696727
-0.42745921 0.27271786 0.75271434 2630687
-0.42383143 0.27394858 0.75300002 2170901
-0.41721168 0.27301079 0.75300014 2891552
-0.41188535 0.27272668 0.7524001 3156002
-0.407648 0.27224264 0.75224996 2828066
-0.40324834 0.27228177 0.75181812 2172185
-0.39857146 0.27214286 0.75000006 2304789
-0.43674001 0.27717572 0.75300002 2761768
-0.43237358 0.27749357 0.75288898 3222550
-0.42722735 0.27741173 0.75266671 2894623
-0.42263618 0.27777335 0.75300002 2829597
-0.4173772 0.27753428 0.75300008 2564132
-0.41217503 0.27741185 0.75266671 3284516
-0.40775368 0.27732974 0.75244439 4008237
-0.40269613 0.2774168 0.75127274 3088159
-0.39928573 0.27714288 0.75000006 2759958
-0.43559259 0.28212401 0.75300002 2629165
-0.43243718 0.2825543 0.75300008 1710622
-0.42741722 0.2825543 0.75300014 1842969
-0.42239714 0.28255433 0.75300008 2501910
-0.41756591 0.28226879 0.75278586 2107170
-0.4121497 0.28208861 0.75161541 3484447
-0.40756527 0.28222713 0.75169235 3154458
-0.40326667 0.28194806 0.75057143 1903887
-0.45108289 0.28900859 0.75300002 2823437
-0.43788743 0.28872174 0.75300002 2433819
-0.43243715 0.28757432 0.75300002 2170914
-0.42741719 0.28757432 0.75300008 1383444
-0.42239717 0.28757429 0.75300002 2695971
-0.41778624 0.28736171 0.75244445 2171942
-0.41215238 0.28704 0.75066668 3093034
-0.40781456 0.28670216 0.75025004 3552802
-0.40357143 0.28694803 0.75000006 2693400
-0.45108289 0.29187715 0.75300002 1705759
-0.44884491 0.29353553 0.75199997 2431001
-0.43759838 0.29227766 0.75271434 2763032
-0.4323535 0.29246518 0.75214285 2368278
-0.42741719 0.29259431 0.75300014 2499097
-0.42235056 0.29256168 0.75291681 2957592
-0.41763237 0.29226997 0.75216669 3023648
-0.41346288 0.29192445 0.75066668 2893857
-0.40785715 0.29214287 0.75000006 2567475
-0.40309525 0.29119048 0.75000006 3550498
-0.44728273 0.29735282 0.75143754 1972509
-0.44346145 0.29882237 0.75183338 1777170
-0.43759239 0.29721904 0.75199997 2830120
-0.43271798 0.29729354 0.7505455 2958375
-0.42776 0.2963734 0.75066674 2695720
-0.42284906 0.29675668 0.75083333 2302238
-0.41715032 0.29670152 0.75036371 2957340
-0.41300002 0.29614288 0.75000006 2893100
-0.40738097 0.29595241 0.75000006 2958881
-0.44738099 0.30261904 0.75000006 1381905
-0.44161531 0.30208305 0.7513333 1842970
-0.43764609 0.30221409 0.75159997 2958369
-0.4330608 0.30209884 0.75059998 2235930
-0.40833333 0.30261907 0.75000006 4144428
-0.4468368 0.3069388 0.75000006 2431507
-0.4419021 0.30705521 0.75028574 2105627
-0.43779096 0.30681047 0.75050002 3156002
-0.43260461 0.30689752 0.75080001 3089950
-0.42806125 0.30744901 0.75000006 2563856
-0.42357147 0.30857146 0.75000006 1580050
-0.40846941 0.30724493 0.75000006 4012593
-0.44785717 0.3107143 0.75000006 3349274
-0.44214287 0.3107143 0.75000006 2628891
-0.42642859 0.3107143 0.75000006 2035988
-0.42357144 0.31119052 0.75000006 1576731
-0.41928574 0.31214288 0.75000006 2434093
-0.40750328 0.31259507 0.75040007 1972511
-0.40223971 0.31221855 0.75018191 2432032
-0.39842859 0.31214291 0.75000006 1582623
-0.4427143 0.31814286 0.75000006 2499866
-0.40724492 0.317449 0.75000006 2170900
-0.40255108 0.31734699 0.75000006 2370076
-0.39857146 0.31642857 0.75000006 2173208
-0.44214287 0.32071429 0.75000006 2235686
-0.40357146 0.32214287 0.75000006 2696225
-0.40357146 0.32500002 0.75000006 1449504
0.34632 -0.30024001 0.75600004 7038312
0.35376313 -0.30122024 0.75575006 9799300
0.35759336 -0.3013581 0.75700003 9342342
0.36095238 -0.3017562 0.75800002 9209216
-0.052699048 -0.29598096 0.75799996 729122
-0.047645714 -0.29598096 0.75799996 3097142
-0.042592388 -0.29598093 0.75799996 5198922
-0.037539046 -0.29598093 0.75799996 6511710
-0.032485716 -0.29598096 0.75799996 7431517
-0.027362382 -0.29592001 0.75600004 7628398
-0.022290476 -0.29552859 0.75500005 7759975
-0.017257145 -0.29552859 0.75500005 7301992
-0.01222381 -0.29552859 0.75500005 7630443
-0.0071904766 -0.29552859 0.75500005 7433320
-0.0021571429 -0.29552859 0.75500005 7367537
0.0035952383 -0.29552859 0.75500005 6973027
0.0079095243 -0.29552859 0.75500005 6845030
0.01222381 -0.29552859 0.75500005 7105637
0.016538097 -0.29552859 0.75500005 7894379
0.32429048 -0.29984286 0.75500005 7364187
0.32668731 -0.29936349 0.75500005 6905947
0.33867145 -0.29912382 0.75500005 8811365
0.34236938 -0.29922652 0.75500005 7759971
0.34730002 -0.29936349 0.75500005 7103591
0.35249931 -0.29774106 0.75500005 8616060
0.35751477 -0.2976881 0.75683331 8685186
0.36167428 -0.29734457 0.75799996 8488570
0.36744952 -0.29598096 0.75799996 8354680
0.37149221 -0.2958366 0.75800002 9605758
-0.056045335 -0.29146707 0.75639999 726028
-0.052621379 -0.2919437 0.75688887 531472
-0.047645718 -0.29237145 0.75799996 2107938
-0.04259238 -0.29237142 0.75799996 4935235
-0.03753905 -0.29237148 0.75799996 6906976
-0.032485716 -0.29237145 0.75799996 7628642
-0.0275566 -0.29251727 0.75571442 7564656
-0.022290478 -0.2926524 0.75500005 7760226
-0.017257145 -0.2926524 0.75500005 7235426
-0.01222381 -0.29265237 0.75500005 7826788
-0.0070107142 -0.2926524 0.75500005 7499618
-0.0023968257 -0.29289207 0.75500005 7369060
0.0021571431 -0.29409048 0.75500005 6972770
0.0057523809 -0.29409048 0.75500005 6844519
0.35305238 -0.2926524 0.75500005 8222322
0.35688427 -0.2928462 0.75550008 7039860
0.36190134 -0.29243287 0.75666684 7762030
0.36734223 -0.29228613 0.75777775 8354925
0.37178096 -0.29237145 0.75799996 9606528
0.3761124 -0.29092762 0.75800002 9534832
-0.056489047 -0.28695717 0.75799996 857867
-0.052699044 -0.28731808 0.75799996 1186318
-0.047645718 -0.28731811 0.75800008 2760734
-0.04259238 -0.28731814 0.75799996 4802630
-0.037557803 -0.28752589 0.75723082 6316121
-0.032323815 -0.28760001 0.75759995 7433832
-0.027389644 -0.28756359 0.75675011 7760233
-0.022290478 -0.28761908 0.75500005 8155498
-0.017976193 -0.28781515 0.75500005 7629932
-0.013374287 -0.28718764 0.75500005 6710633
-0.0057523809 -0.28977621 0.75500005 8156012
0.35269287 -0.28797859 0.75500005 8747888
0.35818666 -0.28747374 0.75542867 8156785
0.36263874 -0.28709051 0.75550008 8352634
0.36778668 -0.287292 0.75657141 8222578
0.37274191 -0.2874698 0.7578572 9275266
0.37723535 -0.28723791 0.75799996 9142394
0.38188764 -0.28597742 0.75799996 9011336
-0.062695242 -0.28104702 0.75666666 661254
-0.057694048 -0.28198436 0.75725001 1119243
-0.052699056 -0.28226477 0.75799996 1774351
-0.047645714 -0.28226474 0.75799996 3945263
-0.042568251 -0.28209969 0.75755554 5723729
-0.037392002 -0.28209597 0.75600016 7235426
-0.032545801 -0.28217939 0.75636363 7236448
-0.027364684 -0.28227088 0.75608343 7760736
-0.022290478 -0.28258574 0.75500005 7958631
-0.016897621 -0.28294525 0.75500005 7760484
-0.013661905 -0.28258574 0.75500005 7168096
0.35880476 -0.28402382 0.75500005 8550515
0.3624 -0.28258568 0.75500005 8553080
0.36767867 -0.28250676 0.75575012 8812918
0.37234986 -0.28160274 0.75622225 9800316
0.3775562 -0.28226477 0.75799996 9142394
0.38260952 -0.28226474 0.75799996 9403787
0.38658002 -0.2819038 0.75800002 10521224
-0.070024766 -0.27648953 0.75800002 1120781
-0.067228094 -0.2777462 0.75699997 1054481
-0.062805712 -0.27721143 0.75799996 1314826
-0.057752389 -0.27721143 0.75800008 1973533
-0.052699048 -0.27721146 0.75799996 5067585
-0.047645718 -0.27721143 0.75800008 6643288
-0.042518731 -0.27744448 0.75666666 7038046
-0.037407782 -0.27695572 0.75533342 6907230
-0.032380529 -0.27703747 0.75555563 7039328
-0.027134696 -0.27740139 0.75542867 7695207
-0.022290476 -0.2775524 0.75500005 7696747
-0.016538097 -0.27827144 0.75500005 7565160
-0.013661905 -0.27683336 0.75500005 7823983
0.36426955 -0.2774086 0.75500005 7564917
0.36753303 -0.27730432 0.75550008 8420991
0.37213042 -0.27711895 0.75577784 9866632
0.37730321 -0.27735165 0.7572 8947334
0.38281578 -0.27752084 0.75800002 9537931
0.38750246 -0.27713123 0.75799996 9865863
0.39055049 -0.27721143 0.75800002 9867661
-0.10756382 -0.27143621 0.75800002 6579803
-0.095760003 -0.27215999 0.75600004 7169113
-0.092489764 -0.27063024 0.75575006 6314589
-0.089220956 -0.27054048 0.75550008 5458734
-0.082433604 -0.27076992 0.7564286 2825244
-0.077312797 -0.27199811 0.75711113 1973266
-0.072283372 -0.27232412 0.75723076 2039312
-0.067425907 -0.27158058 0.75800002 4470821
-0.062805712 -0.27215812 0.75799996 4407358
-0.057715084 -0.27197921 0.75749999 6314579
-0.052652702 -0.27192003 0.75733328 6448726
-0.047624763 -0.27203843 0.75766665 6578780
-0.042480003 -0.27216002 0.75600004 6906976
-0.037754368 -0.27218929 0.75508338 6645343
-0.032055765 -0.27219969 0.75544453 6709844
-0.027585635 -0.27248961 0.75558347 6577755
-0.013661905 -0.27108097 0.75500005 7635588
0.36419761 -0.27215955 0.75500005 7961461
0.36787152 -0.27255592 0.75590003 8485495
0.37250769 -0.272549 0.75508338 8683644
0.37788287 -0.27219972 0.75544453 9274751
0.38237867 -0.27187237 0.75639999 9078651
0.38694096 -0.27215812 0.75799996 9077889
-0.10467619 -0.26638287 0.75800002 6515039
-0.090238102 -0.26927048 0.75800002 6967390
-0.086601369 -0.26865658 0.7568571 6837069
-0.083019048 -0.26818764 0.75799996 6837827
-0.075800002 -0.26782668 0.75800008 6315850
-0.072190486 -0.26782671 0.75799996 6577240
-0.067137145 -0.26782668 0.75799996 6907748
-0.062805712 -0.26782668 0.75799996 6578526
-0.057664607 -0.26741475 0.75683337 6447449
-0.052559998 -0.26712 0.75600004 6317662
-0.04752 -0.26712 0.75600004 7434601
-0.042480003 -0.26712 0.75600004 7300701
-0.037260387 -0.26743609 0.75526679 6906210
-0.032491777 -0.26732156 0.75509095 8222066
-0.028582141 -0.26748574 0.75500005 8024165
-0.013661905 -0.26964286 0.75500005 6711153
0.36455715 -0.26964286 0.75500005 8353396
0.3674874 -0.2677649 0.75511116 8551026
0.37249741 -0.26750782 0.75506258 9013126
0.3773562 -0.26748571 0.75500005 9473676
0.38203946 -0.26692411 0.75544453 8880768
0.3868131 -0.26731864 0.75714284 9077883
0.39055049 -0.26638287 0.75800002 9473405
-0.10756382 -0.26257643 0.75799996 7957351
-0.10311206 -0.26301399 0.75799996 7762025
-0.085906669 -0.26277333 0.75800002 7235939
-0.082503401 -0.26246396 0.75800002 7760999
-0.076922961 -0.26221186 0.75799996 6775386
-0.072190486 -0.26277336 0.75800008 6841439
-0.067205027 -0.26271775 0.75727272 6645345
-0.062696084 -0.26303262 0.75666666 6841705
-0.057599995 -0.26280001 0.75600004 6446173
-0.052560002 -0.26280001 0.75600004 6975589
-0.04752 -0.26280001 0.75600004 8485744
-0.042455029 -0.2626459 0.75555563 7693155
-0.0374154 -0.26262668 0.75550014 7170666
-0.032366879 -0.26253006 0.75522232 8484727
-0.029001588 -0.26341113 0.75500005 8418157
0.37227058 -0.26258311 0.75500005 9078658
0.37726203 -0.26234311 0.75510007 9800837
0.38220784 -0.26272234 0.75577784 9931903
0.38719469 -0.26278934 0.7568 9536903
0.39055049 -0.26277333 0.75800002 9802119
-0.12128 -0.25699812 0.75800002 8027509
-0.10756382 -0.25771999 0.75799996 8021870
-0.10270736 -0.25785127 0.75799996 7303018
-0.085906662 -0.25772002 0.75800008 7300958
-0.082730293 -0.25786442 0.75799996 7696482
-0.077730387 -0.25746545 0.75763631 6973788
-0.072805077 -0.2573435 0.75688887 6775892
-0.067541689 -0.25736645 0.75630784 6710882
-0.062640004 -0.25776002 0.75600004 6514525
-0.057599999 -0.25776002 0.75600016 6775637
-0.052560002 -0.25776005 0.75600004 6842978
-0.047504764 -0.25767529 0.75575018 7895156
-0.042423811 -0.25741908 0.75500005 7564902
-0.037750006 -0.25753891 0.75500005 7298918
-0.033076189 -0.2595762 0.75500005 7891308
0.37294605 -0.25885716 0.75500005 8749429
0.37791088 -0.25813809 0.75500005 9669260
0.38223046 -0.25738478 0.75538474 9670287
0.38718617 -0.25751585 0.75576931 9405576
-0.11911429 -0.25050095 0.75800002 7692898
-0.11045143 -0.25122285 0.75800002 8353388
-0.10756382 -0.25266662 0.75799996 8286575
-0.10278813 -0.25261113 0.75800002 7299171
-0.098900959 -0.25122285 0.75800002 8027249
-0.085906669 -0.25266668 0.75800002 8286831
-0.083091259 -0.25268191 0.75745451 8089964
-0.077811591 -0.25288782 0.75650007 7959400
-0.072719999 -0.25272 0.75600004 7564383
-0.067680009 -0.25272 0.75600004 7300958
-0.062640004 -0.25272 0.75600004 7037536
-0.057599995 -0.25272003 0.75600004 6973278
-0.05253746 -0.2526086 0.75566673 7107166
-0.047462616 -0.25241375 0.75508338 6842726
-0.042423807 -0.25238574 0.75500005 7170149
-0.039188098 -0.25238574 0.75500005 7630184
0.38253334 -0.25382382 0.75500005 9205890
0.38774642 -0.2525655 0.75500005 8683390
-0.12200191 -0.2472524 0.75799996 8483431
-0.11767048 -0.24761336 0.75799996 7563368
-0.11261714 -0.24761331 0.75799996 8090479
-0.10750118 -0.24746901 0.75755554 8482660
-0.10241905 -0.2474837 0.75692308 8285031
-0.098419689 -0.24713206 0.75800008 8484732
-0.085906662 -0.24761336 0.75800008 8417398
-0.082744762 -0.24750972 0.7568 8351862
-0.077760004 -0.24768004 0.75600016 8354420
-0.072719999 -0.24768002 0.75600004 7827565
-0.067669176 -0.24763927 0.75587523 7236455
-0.062584765 -0.24746239 0.75533342 7169639
-0.057552855 -0.24747585 0.75537515 7300968
-0.052621212 -0.24728702 0.75500005 6841953
-0.046738099 -0.24879049 0.75500005 7891552
-0.042834695 -0.24827686 0.75500005 7760485
-0.038109526 -0.24663334 0.75500005 7895414
0.38828573 -0.24950953 0.75500005 8551809
-0.13788381 -0.24039429 0.75800002 8481899
-0.13066477 -0.2411162 0.75800002 8682357
-0.12748839 -0.24227126 0.75799996 8223606
-0.12289042 -0.24250449 0.75800002 8551541
-0.11767048 -0.24256003 0.75799996 7695972
-0.11271878 -0.24263988 0.75728565 7761769
-0.10731195 -0.24271134 0.75622225 8418408
-0.10216748 -0.24254821 0.75700009 8682859
-0.097588412 -0.24249439 0.75799996 7827818
-0.094569527 -0.2411162 0.75800002 7764594
-0.086727619 -0.24199924 0.75760001 7432300
-0.082849517 -0.24278307 0.75644445 7891817
-0.077760004 -0.24264002 0.75600004 7893098
-0.072719999 -0.24264002 0.75600004 7434085
-0.067650959 -0.24253316 0.75566673 6645075
-0.062736914 -0.24249883 0.75500005 7369064
-0.057543095 -0.24383786 0.7552501 6316131
-0.052490477 -0.24375717 0.75500005 7039073
-0.14510286 -0.23750669 0.75800008 8287855
-0.14239572 -0.23768716 0.75799996 8484720
-0.13788381 -0.23750669 0.75800008 8420726
-0.13066477 -0.23678477 0.75800002 7499122
-0.12835468 -0.23721793 0.75800002 7696239
-0.12272382 -0.23750664 0.75799996 9405064
-0.11767048 -0.23750666 0.75799996 8615544
-0.11224327 -0.23756002 0.75685722 8089962
-0.10732761 -0.2377051 0.75633335 8353388
-0.10256054 -0.23756027 0.75685722 8289137
