# .PCD v0.7 - Point Cloud Data file format
VERSION 0.7
FIELDS x y z rgb
SIZE 4 4 4 4
TYPE F F F F
COUNT 1 1 1 1
WIDTH 181
HEIGHT 1
VIEWPOINT 0 0 0 1 0 0 0
POINTS 181
DATA ascii
0.31566927 0.20502134 0.66350001 0
-0.064705394 -0.04036 0.67266673 0
0.065899976 0.28368777 0.67883343 0
0.046244171 0.0079778954 0.68900007 0
0.0052704313 0.18516341 0.68547642 0
0.055009574 0.18491881 0.68826962 0
0.11469888 0.18475667 0.68763173 0
0.064796969 0.21468167 0.68725014 0
0.1343262 0.21482268 0.68393523 0
0.19529828 0.24517019 0.68432778 0
0.21700156 0.27211246 0.68307143 0
-0.0449416 0.29494503 0.68493015 0
0.025812382 -0.012686349 0.69499993 0
0.07522855 0.0048997351 0.69153732 0
0.02496542 0.015059586 0.69089115 0
0.17478751 0.14485264 0.69494724 0
0.20497437 0.14480326 0.69426793 0
-0.0058773281 0.15462925 0.69080389 0
0.18524097 0.17508394 0.69125414 0
-0.04488679 0.18482147 0.69309407 0
0.28519332 0.18472664 0.69300044 0
-0.1150038 0.21471807 0.69800013 0
-0.065149091 0.21506889 0.69624579 0
0.29270837 0.21459632 0.69016153 0
0.13557483 0.016731525 0.70636678 0
0.28410554 0.01236004 0.70787519 0
0.023988256 0.039689206 0.70633334 0
0.16456169 0.035394534 0.70710021 0
-0.42066669 0.044666667 0.70000011 0
0.31152001 0.057988573 0.708 0
-0.39545688 0.064859726 0.70303327 0
-0.067886904 0.068554044 0.70225 0
0.18491529 0.075139903 0.7037617 0
0.16533409 0.084646717 0.70131111 0
0.16533409 0.084646717 0.70131111 0
-0.03482151 0.094971128 0.70586252 0
0.20485778 0.10476357 0.70065331 0
-0.044704121 0.12478837 0.70296198 0
0.18511111 0.12066668 0.70000005 0
-0.064964212 0.13528404 0.70321399 0
0.35618669 0.15064286 0.70300001 0
-0.17059429 0.1894743 0.708 0
-0.14463362 0.18505915 0.70571178 0
-0.18485458 0.21680909 0.70786673 0
0.12528571 -0.07120122 0.71885711 0
0.085021384 -0.044894606 0.71419662 0
0.1149844 -0.034451302 0.71246159 0
-0.0053837639 -0.016244579 0.71724373 0
0.14368972 -0.019230856 0.71100003 0
0.30516627 -0.015444561 0.7109037 0
0.3147006 -0.014865741 0.71307319 0
0.12149809 -0.0066703409 0.7104286 0
-0.055351373 0.034853138 0.71750993 0
-0.044974238 0.034751035 0.71544629 0
-0.084870942 0.084870853 0.71291828 0
-0.22508097 0.18521404 0.71884632 0
-0.24508841 0.2158246 0.71875006 0
0.14463751 -0.17509022 0.7266531 0
0.10493424 -0.15457456 0.72607172 0
0.064578682 -0.13526122 0.72879177 0
0.12480787 -0.12480943 0.72402036 0
0.11494512 -0.11494669 0.72271407 0
0.32041287 -0.11421001 0.72900003 0
0.094987743 -0.10531361 0.72273189 0
0.17821988 -0.10377388 0.72571421 0
0.20497541 -0.10502981 0.72492725 0
0.0048461035 -0.085118495 0.72661239 0
-0.015834328 -0.045548663 0.72130215 0
-0.12494116 -0.004836523 0.72479588 0
-0.15508863 0.025503969 0.72373456 0
-0.25368765 0.15593001 0.72721434 0
0.194406 -0.21407829 0.7390002 0
0.23497656 -0.18523073 0.73571438 0
0.27490851 -0.18529284 0.73370832 0
0.31510758 -0.18530792 0.73460853 0
0.31510758 -0.18530792 0.73460853 0
0.30510911 -0.17524908 0.73310196 0
0.045430195 -0.16535617 0.73387486 0
0.34498364 -0.12530906 0.73395538 0
-0.065107435 -0.094514184 0.735102 0
-0.12477454 -0.084852472 0.73767918 0
-0.19824126 0.024569392 0.73109519 0
-0.25520933 0.10483573 0.73725647 0
-0.22752772 0.11499803 0.73100001 0
-0.25793859 0.15333596 0.73100001 0
-0.35579675 0.33085945 0.73540008 0
0.054540776 -0.25498948 0.74371451 0
0.014620552 -0.23492286 0.74522245 0
0.2851252 -0.21519686 0.74104369 0
0.2851252 -0.21519686 0.74104369 0
0.38215086 -0.20525496 0.7473684 0
0.014792163 -0.19685337 0.7416001 0
-0.12039238 -0.17097144 0.74800003 0
-0.11399914 -0.1723817 0.74759245 0
-0.064430483 -0.16496634 0.7434082 0
-0.094493836 -0.15462011 0.74672931 0
-0.05440855 -0.15474518 0.74191844 0
-0.11558472 -0.13543665 0.74455118 0
-0.24815048 -0.0057893335 0.74119991 0
-0.21706668 -0.0091619054 0.74000001 0
-0.39388931 0.27601257 0.74765688 0
-0.43470055 0.33291644 0.74217159 0
0.33459985 -0.29448679 0.75272346 0
0.33459985 -0.29448679 0.75272346 0
-0.045354646 -0.26492709 0.75590503 0
-0.14265965 -0.20459825 0.75623095 0
-0.065296412 -0.19607475 0.7504617 0
-0.15485869 -0.17490944 0.75538301 0
-0.12721072 -0.16635881 0.75075001 0
-0.24494582 -0.085011385 0.75644463 0
-0.22857144 -0.049285717 0.75000006 0
-0.22833335 -0.038809527 0.75000006 0
-0.22487274 -0.17501943 0.76628202 0
-0.25530064 -0.13532533 0.76753211 0
-0.25552696 -0.12514 0.76759982 0
-0.33946669 0.06152381 0.76000005 0
-0.44934097 0.12897526 0.76799995 0
-0.39473867 0.12545656 0.76145464 0
-0.39473867 0.12545656 0.76145464 0
-0.42463076 0.15513934 0.76477146 0
-0.40922001 -0.051060002 0.77700001 0
-0.41776913 0.1045331 0.77025014 0
-0.4125343 -0.10219429 0.78900003 0
-0.43170291 -0.17622095 0.80799997 0
-0.45462975 -0.15554574 0.81122237 0
-0.47587654 -0.23912986 0.83233339 0
0.12949067 -0.010611351 0.60874605 0
-0.051276151 -0.013161478 0.67122704 0
0.16646002 -0.11067481 0.69094217 0
0.030301044 -0.0092728259 0.69378048 0
-0.35668069 0.047220819 0.69557142 0
0.013235847 0.11346152 0.6970818 0
0.010218403 0.12986428 0.6931814 0
-0.064586528 0.17414609 0.69882429 0
0.16835153 0.17125782 0.69100273 0
-0.06979692 0.23017898 0.69517809 0
0.10966639 0.2637887 0.68084121 0
0.14984974 -0.050245989 0.71288538 0
0.18939577 0.04782543 0.70794106 0
0.36148518 0.069930598 0.71090353 0
-0.42315286 0.10107143 0.70749998 0
-0.22254764 0.17689683 0.71899998 0
-0.25038376 0.23029815 0.71784008 0
-0.058452278 -0.2829107 0.73196435 0
0.18911779 -0.22884098 0.73883712 0
0.23003864 -0.17021248 0.73300469 0
0.030399302 -0.14935541 0.73035544 0
0.12995467 -0.14962772 0.72599149 0
0.25202769 -0.14849687 0.73017329 0
-0.049907781 -0.070054129 0.72768533 0
0.34996215 -0.070025966 0.72710294 0
-0.21747169 0.16821048 0.72051656 0
-0.010056601 -0.28905264 0.75403827 0
0.049761679 -0.27015716 0.74647468 0
-0.25864762 0.10571429 0.74000001 0
-0.25912383 -0.058628574 0.76000005 0
-0.33075812 -0.030470753 0.76877809 0
-0.46159145 0.14134857 0.77300006 0
-0.44505373 -0.090445548 0.80140007 0
0.12949067 -0.010611351 0.60874605 0
0.30953136 0.14349782 0.62321806 0
0.074120946 0.26138979 0.60409439 0
-0.38597956 -0.020652806 0.66551119 0
-0.059971392 -0.020610273 0.67166662 0
-0.076570831 -0.28065443 0.71787506 0
-0.37982571 -0.057518248 0.69802338 0
0.3633354 0.01988066 0.71715593 0
0.36194587 0.059949804 0.71241903 0
0.05953709 0.14030693 0.69447827 0
0.21990174 0.18076836 0.69071805 0
-0.14461106 0.25852725 0.69769955 0
-0.22043355 0.29912335 0.70487386 0
0.25982261 -0.29069677 0.74871743 0
-0.022021189 -0.14215769 0.7371915 0
0.2606416 -0.14004087 0.73013037 0
0.12949067 -0.010611351 0.60874605 0
-0.077549703 -0.27997151 0.71743751 0
-0.38237128 -0.033753395 0.68758065 0
0.32172635 0.27229363 0.635638 0
0.086326562 -0.079553969 0.71756494 0
-0.48327065 -0.33109987 0.83881927 0
