# .PCD v0.7 - Point Cloud Data file format
VERSION 0.7
FIELDS x y z rgba
SIZE 4 4 4 4
TYPE F F F U
COUNT 1 1 1 1
WIDTH 1182
HEIGHT 1
VIEWPOINT 0 0 0 1 0 0 0
POINTS 1182
DATA ascii
0.55268091 -0.4494144 3.5980346 11186352
0.64748639 -0.44849461 3.5980067 10266019
0.71800369 -0.44544566 3.5980012 8291206
0.86193335 -0.44680321 3.5980449 10790561
0.99063188 -0.40554705 3.5981667 12040636
1.0145104 -0.4478699 3.5982132 12369599
1.1393005 -0.48128447 3.5979998 10919061
-2.0260239 -0.33316457 3.598 13881297
-1.8088012 -0.33825269 3.5979998 14143188
-1.7679572 -0.36444876 3.598 14078679
-1.6343664 -0.3685163 3.5983036 14275801
-1.5477743 -0.35369375 3.5979826 14341850
-1.4512202 -0.35012498 3.5980055 14342107
-1.3947997 -0.35088441 3.5980556 14407900
-1.2751293 -0.35182828 3.5980771 14145240
-1.1404957 -0.354738 3.5981185 13947605
-1.0036852 -0.34682918 3.599 13158602
0.11278406 -0.33994868 3.598 5396051
0.34602347 -0.36316893 3.5981052 14540511
0.46856976 -0.37014738 3.598444 10461344
0.55901963 -0.36090308 3.597878 11449266
0.64748615 -0.35012504 3.5980055 9278103
0.72213483 -0.35096547 3.5980101 6515317
0.86303145 -0.35142899 3.5980639 9539979
0.98070067 -0.36665767 3.5982449 10922927
1.0125104 -0.34799403 3.5980577 10592158
1.1357172 -0.35361516 3.599 10131353
-1.5313499 -0.25174105 3.5978279 13288652
-1.4512243 -0.25175613 3.5980203 13223372
-1.328541 -0.2314281 3.5983748 13620182
-1.2797136 -0.25575903 3.5981228 13750484
-1.1313521 -0.26026207 3.5983748 13553103
0.58729964 -0.25173894 3.5978014 10201009
0.64748621 -0.25175509 3.5980067 8553878
0.71818113 -0.25175765 3.5980334 6317955
0.85712856 -0.25281444 3.5981448 9145480
0.99524993 -0.26142067 3.5987494 10528168
1.0131911 -0.26335615 3.5981665 9473163
-1.5252526 -0.16195963 3.5979671 8421261
-1.451219 -0.14999333 3.5980067 7434877
-1.3571913 -0.12472717 3.5981255 7828864
-1.2747099 -0.14773628 3.5981073 10394533
-1.1360809 -0.13643964 3.5983574 10197918
-1.0362114 -0.1077946 3.5984442 5986401
0.586487 -0.18348761 3.5979373 10005167
0.6522482 -0.15247828 3.5979898 9277849
0.72889072 -0.14210665 3.5980148 8619662
0.85592878 -0.14450784 3.5980899 9013895
0.97007465 -0.12513135 3.5983608 7895160
1.0426588 -0.1361983 3.5983925 4738127
1.1104143 -0.11268903 3.5982499 2896694
-1.5090539 -0.041212648 3.597965 6250858
-1.4511881 -0.048322421 3.5980022 5856098
-1.3509623 -0.048231594 3.5980067 6843249
-1.2503731 -0.047360681 3.5980244 8553350
-1.1567752 -0.038467202 3.5980768 8749951
-1.047285 -0.049012914 3.5981712 7829116
0.66072929 -0.046400268 3.5979943 9936026
0.7477423 -0.048231564 3.5980067 9541523
0.84754515 -0.04758421 3.5980155 9212302
0.94452059 -0.044155009 3.5980449 8883081
1.0478132 -0.044470467 3.5981078 5199185
1.1171867 -0.049203195 3.5982053 2961455
-1.5141468 0.038303819 3.5972974 6710123
-1.4495355 0.048972383 3.5979941 6907756
-1.3509634 0.050138075 3.5980055 7303286
-1.2519921 0.048962712 3.5980396 8224127
-1.1516687 0.049787208 3.5980051 8091768
-1.0504863 0.05302345 3.5981517 10000799
-0.22109699 0.073779836 3.5929999 6502959
0.65650421 0.044193782 3.5977914 9804696
0.74796623 0.04992716 3.5980055 9673108
0.84672552 0.049839109 3.5980194 9541010
0.9489603 0.049433582 3.5980394 10988455
1.0365093 0.050456639 3.598022 8355181
1.1203382 0.056925394 3.5982349 3749681
1.9147387 0.06700515 3.5929999 8752780
-1.5042711 0.10438202 3.5969999 7301995
-1.4449375 0.10727266 3.5977304 6644844
-1.3441372 0.10929787 3.5976233 6119010
-1.2366399 0.11069647 3.5976281 6052444
-1.1519651 0.11707845 3.5977919 6051413
-1.0473074 0.14936015 3.5978563 8289153
-0.9441061 0.17834415 3.5981123 7826782
-0.89517897 0.186509 3.5982003 7565956
0.6500892 0.10291477 3.5965712 10401485
0.74419862 0.10337088 3.5977387 10792359
0.82435083 0.1081117 3.5975711 11911096
0.95479125 0.11261253 3.5974431 13617853
1.0656537 0.14242575 3.5977209 2172201
1.1429002 0.16194664 3.598088 2040614
1.2218324 0.17864302 3.5980241 2039841
-1.0408567 0.25134698 3.5979087 2961205
-0.95243001 0.24894455 3.5980558 2566190
-0.89652824 0.21297243 3.5982499 3093559
1.0802561 0.24976279 3.5979154 1909023
1.1493239 0.25208944 3.5980341 1842974
1.2169148 0.24119742 3.5980911 1777951
-1.0352689 0.35272148 3.5979552 1448475
-0.9541316 0.35157919 3.5979586 1514013
1.0828077 0.35304478 3.5978811 1383450
1.1486552 0.35212553 3.5980244 1645340
1.2143672 0.34942138 3.5978267 1645852
-1.0368588 0.45157498 3.5975318 1382425
-0.95467693 0.45002776 3.597935 1447963
1.0810289 0.45221484 3.5968623 1251862
1.1490078 0.44921437 3.5980148 1448216
1.213522 0.45308307 3.5977695 1383190
-1.0422887 0.53458089 3.5973058 1185302
-0.95253426 0.52719492 3.5969019 1448215
-0.89646596 0.50806606 3.598 1511960
1.0844233 0.53182334 3.596921 2305060
1.1470969 0.53154254 3.5967631 2304036
1.2172111 0.51213652 3.5979998 1712662
-2.3282855 -1.8288738 3.8549993 13486536
-2.2996411 -1.8034329 3.855 14079184
-2.0423682 -1.8475242 3.8559999 15659503
-1.9298646 -1.8351494 3.8550751 14738412
-1.8529131 -1.828477 3.8550036 15987961
-1.7479666 -1.8289639 3.8550422 16711166
-1.651554 -1.828874 3.8550036 16645630
-1.5596387 -1.8274603 3.8550353 16711422
-1.4314942 -1.8272244 3.8552005 16711422
-1.3532798 -1.8327397 3.8550913 16711422
-1.2565405 -1.8281015 3.8551421 16711422
-1.1760556 -1.823012 3.8554163 16711422
-1.0965618 -1.8543139 3.855 16711422
-0.81876636 -1.8241696 3.8551033 16711422
-0.74924582 -1.8288778 3.8550127 16711422
-0.65116274 -1.8287034 3.8550034 16711422
-0.55723554 -1.8275717 3.8548963 16711422
-0.49502203 -1.8397764 3.855 16711422
-0.035718307 -1.8281221 3.8549991 16711422
0.24980621 -1.8547949 3.8559999 16711422
0.36883613 -1.834697 3.8550735 16711422
0.44456816 -1.8289841 3.8550222 16711422
0.55030978 -1.8284026 3.8550415 16645629
0.64718705 -1.8288736 3.8550036 16645629
0.73696172 -1.8276507 3.8550365 16645629
0.86625129 -1.8272995 3.8551862 16645629
0.94720006 -1.833388 3.8551526 16711422
1.044314 -1.8262674 3.8551104 16711422
1.1580803 -1.8155336 3.8559997 16711422
1.4761266 -1.8255816 3.8550835 16711422
1.5495005 -1.8288782 3.8550127 16711422
1.6455368 -1.8278003 3.8549931 16645629
1.7346531 -1.8292007 3.8548961 16316150
-2.3368278 -1.7702976 3.8550639 12171446
-2.2996411 -1.7961643 3.855 14078928
-2.045274 -1.7200216 3.8554001 15198185
-1.9411008 -1.7483648 3.8551373 14079449
-1.8515993 -1.7504932 3.8550763 15132137
-1.7493312 -1.747226 3.8550355 15921654
-1.6515533 -1.7489187 3.8549969 16579837
-1.5561782 -1.7502177 3.855005 16645629
-1.4344336 -1.7606397 3.8552256 16645373
-1.3526286 -1.7403568 3.8552485 16645630
-1.2561301 -1.7533232 3.8550434 16711422
-1.1858047 -1.7658509 3.8551817 16711422
-1.08472 -1.7163595 3.8553333 16711422
-0.82439101 -1.7446269 3.8551564 16711422
-0.74924427 -1.7489178 3.8549969 16711422
-0.65107304 -1.7500594 3.8549869 16711422
-0.57402891 -1.7573782 3.8547544 16711422
-0.04772472 -1.7677002 3.8551164 16711422
0.2533488 -1.7233605 3.8554173 16711422
0.35635209 -1.7494757 3.8552055 16711422
0.44564429 -1.7497709 3.8550482 16711422
0.5484035 -1.74801 3.8550186 16711422
0.64718723 -1.7489187 3.8549969 16711422
0.73825836 -1.7514074 3.8550081 16711422
0.86193514 -1.7625517 3.8552539 16711422
0.9504348 -1.7407556 3.855206 16711422
1.0413635 -1.7541168 3.8550403 16711422
1.1523498 -1.7311949 3.8559999 16711422
1.2065389 -1.7148457 3.8552003 16711422
1.4708481 -1.7457625 3.8551528 16711422
1.5494967 -1.7489177 3.8549969 16711422
1.6461287 -1.7501633 3.8549871 16645629
1.720274 -1.7533062 3.8547087 16579836
-2.3352365 -1.6563901 3.8557267 11905951
-2.0387866 -1.6912067 3.8559999 11779277
-1.9412227 -1.6396953 3.8551667 12235446
-1.8574736 -1.6486781 3.8550277 12038582
-1.7484524 -1.6508846 3.8550177 12170172
-1.6515536 -1.6507894 3.8549984 12630468
-1.5665971 -1.6490728 3.8550205 13157581
-1.4394209 -1.6392865 3.8552308 13289171
-1.3568009 -1.6407547 3.8551402 14144476
-1.2495879 -1.6536671 3.855082 15987446
-1.1663035 -1.6296248 3.8551931 16514044
-1.085603 -1.6440976 3.8555 16711422
-0.83452564 -1.6432921 3.8551064 16711422
-0.74924427 -1.6507891 3.8549984 16711422
-0.65510744 -1.6546769 3.8549883 16711422
-0.58531624 -1.6612827 3.8546922 16711422
-0.042442597 -1.6598148 3.8556995 16711422
0.24980621 -1.694842 3.8559999 16711422
0.3556622 -1.639366 3.8551257 16711422
0.4405984 -1.647438 3.8550353 16381944
0.54784393 -1.6509227 3.855022 16579837
0.64718729 -1.6507909 3.8549984 16711422
0.72987622 -1.6486449 3.8550217 16711422
0.85724515 -1.6438541 3.8552375 16711422
0.94029033 -1.6387205 3.8551052 16711422
1.0455174 -1.6512685 3.8551054 16711422
1.1375941 -1.6382663 3.8553238 16711422
1.211521 -1.6385117 3.8554282 16711422
1.3955314 -1.6326185 3.855 16711422
1.46218 -1.6445348 3.8550875 16711422
1.549497 -1.6507902 3.8549984 16711422
1.6419806 -1.6553684 3.8549681 16711165
1.7283028 -1.6941826 3.8545001 16580350
-1.9449646 -1.554281 3.8550868 15125966
-1.8532815 -1.5540882 3.8550138 14406870
-1.7512163 -1.5519085 3.8550026 13880270
-1.6515535 -1.5526626 3.8549969 13287877
-1.5561179 -1.5522102 3.855047 12761790
-1.4556537 -1.5574852 3.8552778 12366521
-1.3516009 -1.5552641 3.8550315 12432572
-1.2501949 -1.5601895 3.8551133 12433344
-1.1738597 -1.5440495 3.8551342 13092045
-1.0836438 -1.5299424 3.8557494 16711422
-0.82415742 -1.5500032 3.855119 16711422
-0.74924415 -1.552662 3.8549969 16711422
-0.66506553 -1.5519942 3.8549714 16711422
-0.50921232 -1.5340931 3.8540001 16711422
0.29994753 -1.571242 3.8559999 16711422
0.35198319 -1.5547836 3.8550637 16645629
0.44581461 -1.5537767 3.8550134 14670046
0.54781175 -1.5515016 3.8549974 15988472
0.64718723 -1.5526637 3.8549969 16711422
0.73993188 -1.5528694 3.8550577 16711422
0.846533 -1.5580834 3.8552949 16711422
0.94555223 -1.5561225 3.8550196 16711422
1.0508808 -1.560468 3.8550882 16711422
1.1355333 -1.5403812 3.8552732 16711422
1.2190216 -1.5195137 3.8554163 16711422
1.471328 -1.5486587 3.8550966 16711422
1.549497 -1.5526633 3.8549969 16645886
1.6302508 -1.554395 3.8549647 16645630
1.7817732 -1.5413599 3.8540001 16513787
-2.1569767 -1.4076539 3.8559999 15790062
-2.0133252 -1.4237392 3.8552499 16118517
-1.9349922 -1.4502604 3.8550708 16178398
-1.8522716 -1.4506983 3.8550022 16118773
-1.7518106 -1.4509002 3.8549969 16118516
-1.6515534 -1.4509004 3.8549969 16052724
-1.5569082 -1.4494112 3.8550048 15921137
-1.4437888 -1.4428856 3.8551416 15855344
-1.3604944 -1.4502439 3.8550549 15460329
-1.2450991 -1.434242 3.8552117 15789549
-1.1925746 -1.4574968 3.8550012 15065571
-1.077324 -1.4657526 3.855351 16645629
-0.90344399 -1.4161363 3.8559999 16711422
-0.84523374 -1.4474065 3.8550391 16711422
-0.74972379 -1.4513506 3.8549972 16711422
-0.67734063 -1.459057 3.8548517 16711422
0.13519749 -1.4149245 3.8559999 16711422
0.28794646 -1.4164373 3.8551664 16711422
0.36217728 -1.4518743 3.8550653 16645629
0.44650903 -1.4506595 3.8549972 16118772
0.54693073 -1.4509014 3.8549969 16645629
0.64718729 -1.4509002 3.8549969 16711422
0.74119502 -1.4484307 3.8550055 16711422
0.85730052 -1.4475815 3.8551388 16711422
0.93554831 -1.4490851 3.8550384 16711422
1.0537935 -1.4369235 3.8551705 16711422
1.1126868 -1.4566389 3.8550713 16711422
1.2140033 -1.4645737 3.8553348 16711422
1.3925891 -1.4265145 3.8556662 16711422
1.4505965 -1.4493177 3.8550296 16645629
1.5474497 -1.453083 3.8549819 16645629
1.6194452 -1.462666 3.8548756 16645629
-2.0169456 -1.346565 3.8553264 16184309
-1.9397131 -1.348743 3.855098 16184309
-1.8520671 -1.3491392 3.8549969 16315895
-1.7518107 -1.3491395 3.8549969 16381945
-1.6515538 -1.3491393 3.8549969 16447738
-1.5522017 -1.3503267 3.8549974 16513787
-1.4397995 -1.3478894 3.8550863 16513787
-1.3477287 -1.362617 3.8551252 16579579
-1.2386434 -1.3520545 3.855098 16645629
-1.1479148 -1.3514205 3.8551636 16711165
-1.0800382 -1.3869333 3.8556664 16711422
-0.90514642 -1.3502634 3.8556247 16711422
-0.85273093 -1.3543705 3.8550637 16711422
-0.76568574 -1.3783792 3.8547311 16711422
0.2799857 -1.3531253 3.8553057 16711422
0.36190262 -1.3455852 3.8550735 16711422
0.44667423 -1.349139 3.8549969 16711422
0.54693067 -1.34914 3.8549969 16711422
0.64718735 -1.3491405 3.8549969 16711422
0.7457602 -1.3509271 3.8549979 16711422
0.86034828 -1.3475156 3.8550851 16711422
0.95609117 -1.3649788 3.8551641 16711422
1.0605234 -1.3504689 3.8551109 16711422
1.1551235 -1.3552645 3.8551924 16711422
1.2311434 -1.3603951 3.8559999 16711165
1.3912135 -1.3374792 3.855437 15656686
1.4419086 -1.3579082 3.8549414 15592174
1.5296246 -1.3822118 3.8550007 14475238
-2.0205977 -1.2332699 3.8551838 16052979
-1.9502162 -1.2481269 3.8550198 16184309
-1.8520677 -1.2473773 3.8549969 16250359
-1.7518103 -1.2473778 3.8549969 16381945
-1.6515535 -1.2473774 3.8549969 16513530
-1.5528991 -1.2471093 3.8550029 16513787
-1.4535675 -1.2505857 3.8550708 16579580
-1.3313056 -1.2409292 3.8551507 16645629
-1.2546775 -1.2412463 3.8550587 16645629
-1.1315405 -1.2548201 3.855298 16711422
-1.0859246 -1.22024 3.8553748 16711422
-0.90722299 -1.2386038 3.8554542 16711422
-0.8763442 -1.2449254 3.8550498 16711422
0.27784312 -1.2379092 3.8551159 16711422
0.35168728 -1.2492652 3.8550222 16711422
0.44667426 -1.2473772 3.8549969 16711422
0.54693067 -1.2473776 3.8549969 16711422
0.64718729 -1.2473779 3.8549969 16711422
0.74514312 -1.247951 3.8550088 16711422
0.84264314 -1.2509335 3.855072 16645629
0.96852314 -1.2384514 3.8551397 16514044
1.0424103 -1.2427393 3.8550453 14671592
1.1723223 -1.251985 3.8553956 12499652
1.2022573 -1.2111119 3.8552499 12829393
1.3878781 -1.2377797 3.8552923 12369089
1.4180391 -1.2438583 3.8550415 12433340
-2.0274785 -1.1521689 3.855103 15986673
-1.9503422 -1.146143 3.8550062 16052723
-1.8520677 -1.1492501 3.8549984 16184310
-1.7518104 -1.14925 3.8549984 16315895
-1.6515536 -1.1492503 3.8549984 16381945
-1.5517442 -1.1485201 3.8550096 16447994
-1.4538461 -1.1488023 3.8552051 16579579
-1.3444965 -1.1491729 3.8552158 16645629
-1.2536476 -1.1486945 3.8550355 16645629
-1.1418949 -1.1398717 3.8550684 16711422
-1.0717483 -1.1567893 3.8558993 16711422
-0.91211343 -1.1653314 3.8553011 16711166
-0.85885626 -1.1471409 3.8549454 16711422
0.19724269 -1.1105794 3.8553333 16711422
0.27359277 -1.1521785 3.8550727 16711422
0.35237041 -1.1465209 3.8550074 16711422
0.44667423 -1.1492499 3.8549984 16711422
0.54693067 -1.1492498 3.8549984 16711422
0.64718735 -1.1492498 3.8549984 16579836
0.74738735 -1.1486459 3.8550153 15724273
0.84782171 -1.1481256 3.8552072 14802661
0.95834947 -1.1470203 3.8551953 12433604
1.044245 -1.1479086 3.8550439 12104118
1.1590934 -1.1457851 3.8550797 12829125
1.2257309 -1.1567818 3.8558745 14011602
1.384586 -1.1648428 3.8552444 12499901
1.443869 -1.1455293 3.8549175 12499645
-2.0217731 -1.0569321 3.8552182 15789552
-1.9523228 -1.0511227 3.8549969 15920881
-1.8520671 -1.0511229 3.8549969 16052723
-1.7518107 -1.0511231 3.8549969 16184310
-1.6515144 -1.0516083 3.8549922 16250359
-1.5512974 -1.0511231 3.8549969 16381945
-1.4532782 -1.0478425 3.8550353 16447994
-1.3456904 -1.0501083 3.8550513 16579580
-1.2509423 -1.0553881 3.8551307 16645629
-1.1614194 -1.0376501 3.8552732 16645629
-1.0638974 -1.0545214 3.8557053 16711422
-0.90344399 -1.0804777 3.8559999 16711422
-0.85867155 -1.046904 3.8551295 16711422
0.19250186 -1.0986542 3.8559999 16711422
0.28161716 -1.0530652 3.8551259 16645886
0.34999794 -1.0511233 3.8549984 16711422
0.44667432 -1.0511231 3.8549969 16711422
0.54693061 -1.0511236 3.8549969 13618900
0.64777654 -1.0546752 3.8549929 12960715
0.74744296 -1.051121 3.8549917 12828870
0.84403843 -1.0465692 3.8550241 13224141
0.95142967 -1.0504327 3.8550425 13289677
1.0488188 -1.0538706 3.8551378 12828870
1.1494077 -1.0261059 3.8552861 12829122
1.2310699 -1.0575312 3.8557642 13487062
1.3935192 -1.0444771 3.8556244 12500671
1.4351109 -1.0483705 3.8550608 12631488
-2.1235492 -0.90719539 3.8559999 15262187
-2.0280757 -0.94968086 3.8551662 15526124
-1.9521407 -0.9492507 3.8550022 15657710
-1.8520676 -0.94936013 3.8549969 15855345
-1.7600825 -0.95110935 3.854815 15986674
-1.6352713 -0.9278146 3.854923 16118517
-1.5400017 -0.98719275 3.8549275 16316408
-1.4440465 -0.95944524 3.8549821 16381945
-1.351771 -0.95278847 3.8549764 16447994
-1.2483647 -0.95093858 3.8548374 16513787
-1.1603247 -0.94360393 3.8550456 16579836
-1.0515523 -0.9174757 3.8553996 16645629
-0.90960664 -0.94848239 3.8552299 16645629
-0.87279403 -0.95056707 3.8550892 16645629
0.16862504 -0.91446608 3.8559999 16711422
0.27135283 -0.95133227 3.8551354 16645630
0.3503167 -0.94916135 3.8550038 16711422
0.44667423 -0.94936168 3.8549969 16711422
0.53408384 -0.95058596 3.8547962 12303033
0.65951061 -0.91986793 3.8549445 13093587
0.76335818 -0.98932093 3.8549318 11779782
0.85458916 -0.95798385 3.8549821 12830409
0.94651586 -0.95440084 3.8548 11974074
1.0493332 -0.95153767 3.8549163 10657707
1.1396137 -0.93871695 3.8550467 10789542
1.2342058 -0.91111588 3.8552306 12962256
1.3857133 -0.94882333 3.85518 11974330
1.4244784 -0.94844252 3.8550994 11842488
-2.1408308 -0.82698077 3.8552232 15065316
-2.0464892 -0.83954364 3.8550267 15262952
-1.9523225 -0.84759945 3.8549969 15460074
-1.8520672 -0.84759974 3.8549969 15591917
-1.7637538 -0.84830636 3.8550022 15723503
-1.6384596 -0.84901744 3.8549087 15921138
-1.5158882 -0.82417381 3.8547142 15987187
-1.4453845 -0.84181684 3.8549879 16118773
-1.3495973 -0.8451789 3.8549752 16250615
-1.2539912 -0.84347337 3.8549001 16316408
-1.1498643 -0.84744954 3.8549972 16447994
-1.0695504 -0.84877992 3.8550551 16579836
-0.92575282 -0.82867599 3.8553419 16645629
-0.85563338 -0.84743071 3.8550298 16645629
-0.78167224 -0.85145432 3.8559999 16711422
0.099382274 -0.84418374 3.8559999 16711422
0.16099745 -0.83060926 3.8551807 16645629
0.25682232 -0.84351462 3.8550158 16645629
0.34999797 -0.84759927 3.8549984 16645886
0.4466742 -0.84759873 3.8549969 16645630
0.53116542 -0.84846717 3.8550045 12368827
0.65261573 -0.84992391 3.8548985 13357522
0.78488147 -0.82502323 3.8548 13290186
0.85076147 -0.84416437 3.8549871 13685459
0.95125073 -0.84546798 3.854969 12829895
1.0462368 -0.84400415 3.8549933 12960967
1.1489503 -0.84737414 3.8549972 12763843
1.2267835 -0.8497107 3.8550706 13158346
1.3683995 -0.82913488 3.8552952 12434367
1.438971 -0.84943128 3.8550143 11776434
1.5105021 -0.85872489 3.8559999 11117226
-2.1428983 -0.74887472 3.8551967 14802401
-2.0525808 -0.7494722 3.8549984 15065316
-1.952323 -0.74947172 3.8549984 15197415
-1.852067 -0.74947113 3.8549984 15329002
-1.7644155 -0.75039881 3.8547821 15460331
-1.6368089 -0.77143496 3.8545682 15723759
-1.5043591 -0.76671773 3.8540001 15855602
-1.4499875 -0.74938667 3.8549819 15855345
-1.34982 -0.75055766 3.8549576 15921651
-1.2511079 -0.74785841 3.8542764 16053236
-1.1502705 -0.74947125 3.8549984 16053493
-1.0674874 -0.74696714 3.8550127 15987443
-0.95575505 -0.76107037 3.8554153 12563899
-0.87018186 -0.75047213 3.8550851 8679025
0.15693372 -0.7511034 3.8551531 16514044
0.25332201 -0.74947113 3.8549984 16645629
0.34999797 -0.7494719 3.8549995 16645630
0.44667426 -0.74947166 3.8549984 16645629
0.53041172 -0.75116605 3.8547564 11974328
0.65635222 -0.77329892 3.8545005 13555931
0.79131711 -0.74832255 3.8544285 13159370
0.84770042 -0.74947125 3.8549984 13356751
0.94990212 -0.75124729 3.8549573 12566981
1.0478165 -0.74758816 3.8542705 12960967
1.1484704 -0.74947178 3.8549984 12829638
1.2293332 -0.74823159 3.8550313 12369601
1.3467547 -0.75701725 3.8553576 12566721
1.4240259 -0.75200528 3.8550904 12500415
-2.2138031 -0.61018211 3.8551667 14341591
-2.1519487 -0.64489603 3.855134 14604764
-2.0519454 -0.65125424 3.8550234 14736608
-1.9523227 -0.6513437 3.8549969 14868195
-1.8521926 -0.65202856 3.8549762 14999781
-1.7704123 -0.65137434 3.8550043 15197159
-1.624724 -0.6210351 3.8548577 15263208
-1.5043591 -0.63155496 3.8540001 15329004
-1.4446729 -0.64973611 3.8549581 15526637
-1.3407555 -0.65558976 3.854944 15658222
-1.2523445 -0.65053207 3.8547208 15592686
-1.1466798 -0.65236288 3.8549652 15329515
-1.0584445 -0.65291643 3.8550475 14342620
-0.95890164 -0.64534211 3.8551052 10853016
-0.85765654 -0.64119911 3.8550029 6249307
0.085346758 -0.62244135 3.8550875 5787726
0.15319639 -0.64819175 3.8551419 8548730
0.25332204 -0.65134388 3.8549969 16580093
0.34999794 -0.65134418 3.8549984 16514043
0.44696206 -0.65159625 3.8549764 16513785
0.52475721 -0.65117753 3.8550034 11381935
0.66692865 -0.62619174 3.8548269 14080983
0.79030901 -0.61855495 3.8544998 12435900
0.85188311 -0.64976799 3.854959 12830664
0.96286333 -0.6556986 3.8546851 12501444
1.0443543 -0.65038019 3.8548839 12961223
1.150185 -0.65174299 3.8549659 12764101
1.2430576 -0.65317351 3.8550713 11908793
1.3443708 -0.64675778 3.8550625 12040634
1.4396075 -0.64228392 3.8550034 11909561
-2.2334683 -0.56138831 3.8552623 14407125
-2.1540856 -0.55056953 3.8550723 14407386
-2.0525806 -0.54958218 3.8549969 14473436
-1.9523228 -0.54958236 3.8549969 14604766
-1.8518829 -0.55003214 3.8549972 14670560
-1.7718402 -0.55906308 3.8546982 14802402
-1.6288251 -0.57073087 3.8545175 15065573
-1.5044372 -0.55528247 3.8541999 15131624
-1.4500662 -0.54988354 3.8549871 15197416
-1.3444022 -0.54550767 3.8549113 15131880
-1.2572327 -0.55134279 3.8549817 14868964
-1.1488317 -0.54992431 3.8549762 14408156
-1.047856 -0.55126071 3.8549645 13553103
-0.94182163 -0.55049556 3.8550756 8876395
-0.85008246 -0.5527634 3.8549321 7696493
-0.79579192 -0.59682906 3.855 5724507
0.069865771 -0.56076616 3.8552372 8945514
0.15421398 -0.54861486 3.8550475 8681844
0.25332204 -0.54958242 3.8549969 14738147
0.34999797 -0.5495829 3.8549984 15132648
0.44699225 -0.55058998 3.8549924 15592940
0.52491724 -0.56067395 3.8546171 10330531
0.66204518 -0.5762043 3.8545184 13555149
0.79032958 -0.55243313 3.8546002 11056046
0.84769863 -0.54958147 3.8549867 11186865
0.95873564 -0.54653114 3.8549142 7895426
1.0406357 -0.55121118 3.8549507 10791347
1.1487093 -0.54978722 3.8549972 12501185
1.2510248 -0.55076081 3.8549643 10857388
1.3570653 -0.55078822 3.8550732 11251632
1.4453205 -0.55388373 3.8549259 11317167
-2.2429779 -0.44132191 3.8553724 14012368
-2.1511281 -0.44595629 3.8550205 14143957
-2.0525804 -0.44782043 3.8549969 14210008
-1.9532824 -0.44857576 3.8549767 14341338
-1.849871 -0.44769198 3.8549485 14341594
-1.7666935 -0.44402531 3.8548429 14472924
-1.5045153 -0.48045474 3.8543999 14868450
-1.4486872 -0.44895291 3.8549871 14671072
-1.3407116 -0.44923934 3.8549058 14473693
-1.2613112 -0.45415175 3.8549747 14342363
-1.1455854 -0.44783685 3.854959 13947862
-1.0496612 -0.4471243 3.8549972 13224138
-0.94903874 -0.44356477 3.8550246 8943219
-0.85451293 -0.44568095 3.8550382 6777453
0.067699075 -0.43923995 3.8552282 7697775
0.15312204 -0.44822431 3.8549924 8221549
0.25344929 -0.44806084 3.8549764 13356493
0.34822494 -0.44898689 3.8549643 13685460
0.44829258 -0.4473578 3.8549492 14606046
0.53597677 -0.44211137 3.8547957 9738909
0.79033428 -0.48411751 3.854625 7831952
0.84782714 -0.44802472 3.8549871 7436415
0.9625513 -0.44980711 3.8548958 4276805
1.0351691 -0.45728815 3.854955 8555673
1.1504452 -0.44689101 3.8549767 11448501
1.2490575 -0.44782007 3.8549919 10527912
1.351261 -0.44432148 3.8550181 9935516
1.4409475 -0.44627512 3.855042 8816524
-2.2356515 -0.38099071 3.8548458 13881294
-2.1659296 -0.38070863 3.8544002 13946834
-2.0540135 -0.38098609 3.8545556 14012629
-1.9522237 -0.37828323 3.8549175 14012887
-1.85033 -0.37556356 3.8547382 14209751
-1.7711604 -0.36975169 3.85481 14078679
-1.4476151 -0.34865776 3.8549638 14144729
-1.3382835 -0.35108164 3.8548975 14013398
-1.2635958 -0.34313348 3.8549387 13881812
-1.1464272 -0.3514764 3.8549819 13553103
-1.0501947 -0.34940132 3.8549874 12763588
-0.94744635 -0.34991723 3.855042 8482665
-0.85351592 -0.35252482 3.854892 6779508
0.066890985 -0.38505527 3.8548663 4739148
0.14413545 -0.381962 3.8540976 8093820
0.25927189 -0.38358775 3.8547349 13751249
0.35045892 -0.38129005 3.8549349 14540510
0.4481881 -0.37884679 3.8546853 14013908
0.52451825 -0.37306663 3.8547513 9541525
0.79386806 -0.32056826 3.8543999 6057087
0.84874308 -0.3492834 3.8549819 7174012
0.96624726 -0.35199025 3.8548975 3355960
1.0357474 -0.34563428 3.8549223 8489617
1.1508901 -0.35044917 3.8549931 6910583
1.2475591 -0.34965026 3.8549933 7435124
1.3496032 -0.35195577 3.8550241 5988964
1.4421331 -0.35482097 3.8547995 7172719
-1.4507869 -0.25158262 3.8549662 12960716
-1.3319306 -0.25175679 3.8548944 13487311
-1.2555747 -0.24985397 3.8549762 13487312
-1.1493708 -0.25065634 3.8549817 13290187
-1.0500135 -0.25156593 3.8549969 12566464
-0.9775908 -0.2521551 3.854836 10525852
-0.83809507 -0.29857993 3.852 6188152
0.61432391 -0.20410739 3.8510001 8620936
0.79390579 -0.24850816 3.8545835 6123392
0.84549874 -0.25224617 3.8549979 8423309
0.96767342 -0.25196332 3.8549101 8159105
1.0438198 -0.24964984 3.85497 8685459
1.1489471 -0.25156537 3.8549867 6778231
1.248727 -0.25156602 3.8549969 6975085
1.3164544 -0.2516109 3.8547766 5922399
-1.6746607 -0.19319104 3.8505001 10724775
-1.4480168 -0.15996805 3.8549414 8683919
-1.3301184 -0.15298755 3.8549395 10262688
-1.2526215 -0.15374972 3.8549142 10329251
-1.1488943 -0.15286499 3.8549702 10197921
-1.0496002 -0.1501406 3.8549714 9014417
-0.98308438 -0.14896546 3.8549988 9541018
0.61416435 -0.19679511 3.8499999 8817544
0.79378569 -0.19699958 3.8540001 6188667
0.847386 -0.16249654 3.8549469 9278098
0.97282177 -0.15697715 3.8549364 7632246
1.0464032 -0.15366895 3.8548851 6841960
1.1486063 -0.15348069 3.8549523 4212041
1.2489226 -0.14993396 3.8549764 4014402
1.312125 -0.14802261 3.8549995 3750971
-1.355383 -0.077107958 3.8544998 9276818
-1.2347281 -0.077419668 3.8545444 9605010
-1.1551007 -0.047390625 3.8548973 9210250
-1.042402 -0.049681582 3.8549514 6646128
-0.98198265 -0.048042372 3.8549993 7959661
0.93706876 -0.080739334 3.8543999 9015178
1.0604669 -0.080978237 3.8546143 8422527
1.1404917 -0.044801086 3.8548717 3552050
1.2544529 -0.047811005 3.8549762 3158319
1.3131781 -0.048042387 3.8549993 3158321
-1.330436 0.068254307 3.8548334 8156540
-1.2911457 0.068974353 3.8543999 8424072
-1.1380341 0.051071603 3.8548863 10198435
-1.0436256 0.049478795 3.8549755 8488851
-0.98371142 0.049458425 3.8549991 8879475
0.9762072 0.06924323 3.8547273 11317416
1.0228842 0.0064711752 3.8540001 9014157
1.1563194 0.049477529 3.8548644 4804666
1.254348 0.049768649 3.8549819 2764331
1.3112248 0.049424242 3.8550003 2895407
-1.4363456 0.12274018 3.8540001 5198172
-1.3423684 0.11784881 3.8525555 6054759
-1.2572089 0.12680717 3.8518569 6118738
-1.1676751 0.13729541 3.8546662 8417629
-1.0493442 0.14119272 3.8549199 8484977
-0.9858073 0.13663222 3.8549774 8484720
0.85464001 0.11547337 3.8540001 12963787
0.95940208 0.10999251 3.8530004 11974067
1.0877942 0.13860266 3.8506 3152418
1.1256949 0.13366129 3.8546665 2501679
1.2450216 0.13890995 3.8549199 2303528
1.3093505 0.13279782 3.8550012 2500391
-1.1541816 0.2594468 3.8492854 3158582
-1.0691713 0.23340158 3.8547413 5000268
-0.97388524 0.27618217 3.8544443 2302760
1.1332057 0.25772148 3.8487499 1777950
1.2256579 0.23420662 3.8547094 1908765
1.3160503 0.2776182 3.8545382 1843487
-1.15334 0.34789532 3.8526297 1711393
-1.0533897 0.37165344 3.85425 1973018
-0.97685242 0.3155826 3.8547058 1711396
1.1373234 0.34356073 3.8529153 1645595
1.2491833 0.35239103 3.8541999 1580825
1.3186494 0.31372598 3.8548181 1450523
-1.1456985 0.41798934 3.8516667 1580061
-1.0641989 0.45344415 3.8545001 1841700
1.143405 0.41659909 3.8499999 1514006
1.2292004 0.47450477 3.8543999 1382938
-1.0591038 0.50354707 3.8541999 1448227
-0.9640798 0.56616259 3.855 2038038
1.2340845 0.5006144 3.8540001 1514001
1.3275001 0.55889392 3.855 1843991
-2.2216618 -1.9183834 4.0960002 15461098
0.19687444 -1.9161768 4.0960002 16711422
0.21589662 -1.9277614 4.0960002 16711422
-2.3267367 -1.6381449 4.0960002 15065825
-2.2817175 -1.6381449 4.0960002 15197669
0.097959019 -1.6342833 4.0960002 16711422
0.14817762 -1.6505018 4.0960002 16711422
-2.3311753 -1.5435368 4.0960002 15987440
-2.2790542 -1.5408337 4.0960002 15921650
0.095422722 -1.5634881 4.0960002 16711422
0.15122117 -1.5428933 4.0960002 16711422
1.5436459 -1.3060511 4.0960002 12500160
-0.90641284 -1.221097 4.0960002 16711422
-0.8949995 -1.2519894 4.0960002 16711422
1.5335007 -1.2159481 4.0960002 12368573
-0.89626771 -1.165748 4.0960002 16711422
1.5390805 -1.1670351 4.0960002 12631487
-0.84554183 -1.0048499 4.0960002 16711422
1.5892991 -1.0087115 4.0960002 12369597
-0.84807819 -0.97781897 4.0960002 16711166
1.5862556 -0.98168051 4.0960002 12303807
-0.83793294 -0.84652615 4.0960002 16645629
1.596908 -0.85424918 4.0960002 12499388
-0.90641284 -0.53374016 4.0960002 9869194
1.5284281 -0.54146326 4.0960002 11383982
-0.84934634 -0.46037063 4.0960002 5591124
1.5816902 -0.46732146 4.0960002 6318469
1.6045169 -0.4719553 4.0960002 5859459
-1.0053283 -0.30976999 4.0960002 7097417
-0.90641284 -0.3252162 4.0960002 5925500
1.4295126 -0.31749311 4.0960002 5593433
1.5284281 -0.33293933 4.0960002 7107962
-2.4314353 -1.9381192 4.1118841 14210513
-2.3498294 -1.9391682 4.112 14539481
-2.2485092 -1.9411223 4.112 15328999
-2.1483395 -1.9385445 4.1119852 16052980
-2.0733814 -1.9237936 4.1118774 16447738
-1.9133993 -1.9385542 4.1116109 16711422
-1.6222315 -1.9463924 4.1114483 16711422
-1.5671316 -1.9411066 4.1119514 16711422
-1.4372689 -1.9303571 4.1118121 16711422
-1.3428593 -1.9461225 4.1117144 16711422
-1.2391444 -1.9403838 4.111937 16711422
-1.1465867 -1.9388924 4.1119928 16711422
-1.0474484 -1.9391698 4.112 16711422
-0.94980687 -1.9400107 4.112 16711422
-0.88954049 -1.9499295 4.1117997 16711422
-0.013075946 -1.9288785 4.1117239 16711422
0.052510064 -1.9391648 4.1119928 16711422
0.1501513 -1.9394503 4.112 16711422
0.25556397 -1.9392254 4.1119919 16711422
0.33942449 -1.9352239 4.1119328 16711422
0.4390232 -1.9066045 4.112 16711422
0.53157717 -1.9415953 4.1116662 16711422
0.77955228 -1.9480917 4.1111999 16579836
0.86209995 -1.9400381 4.1119022 16645629
0.97471821 -1.9469893 4.1116128 16645629
1.0296943 -1.9246998 4.111907 16711422
1.1660885 -1.9477229 4.1118445 16711422
1.2523789 -1.9392811 4.112 16711422
1.3510714 -1.9391682 4.112 16711422
1.4503739 -1.9391693 4.112 16711422
1.5275545 -1.9422446 4.1119461 16711422
-2.5064209 -1.8189926 4.112 8414568
-2.4506829 -1.8500743 4.1119795 11842226
-2.3498294 -1.8500067 4.112 13092295
-2.2467079 -1.8500069 4.112 14342621
-2.1461668 -1.8566335 4.1119409 14276828
-2.0540936 -1.8478196 4.1117964 13552851
-1.928848 -1.8355732 4.1117997 13420498
-1.6173886 -1.8316318 4.1114798 16645629
-1.55516 -1.8442813 4.1119385 16645629
-1.4459755 -1.860658 4.1116009 16645886
-1.3219181 -1.8504516 4.1116319 16711422
-1.2437416 -1.8462181 4.1119576 16711422
-1.1463941 -1.8509524 4.1119928 16711422
-1.0474483 -1.8500074 4.112 16711422
-0.95263964 -1.8512918 4.1119857 16711422
-0.89025003 -1.8670441 4.1117144 16711422
-0.027489603 -1.8484528 4.1119781 16711422
0.052510079 -1.8500061 4.112 16711422
0.15181184 -1.8500063 4.112 16711422
0.24906053 -1.8517356 4.1119847 16711422
0.34545499 -1.8488662 4.1118464 16711422
0.4249315 -1.8585861 4.1117587 16711422
0.51731265 -1.8344768 4.1119499 16711422
0.85460836 -1.8419803 4.111834 16711422
0.9386912 -1.8473033 4.1117063 16711422
1.0261716 -1.8515314 4.1117625 16711422
1.1674608 -1.8463093 4.1118503 16711422
1.2505376 -1.851018 4.1119928 16711422
1.3510717 -1.8500079 4.112 16711422
1.4503738 -1.8500059 4.112 16711422
1.5226839 -1.852165 4.1119528 16711422
-2.5063097 -1.7523071 4.1118183 12694956
-2.4517899 -1.7530845 4.1119871 12168871
-2.3498294 -1.75309 4.112 11051164
-2.2467086 -1.7530892 4.112 10459032
-2.1536453 -1.7556822 4.111979 11511721
-2.0723836 -1.774857 4.1118832 12038327
-1.9329416 -1.7651398 4.1116858 12301754
-1.8848433 -1.7579699 4.1113334 12368061
-1.6243396 -1.7570103 4.1116543 13420241
-1.5551246 -1.7553328 4.1118922 14078426
-1.4511138 -1.773749 4.1117492 16119545
-1.36984 -1.7510291 4.1118479 15330033
-1.2436668 -1.7582309 4.1118035 16514301
-1.1449782 -1.7538506 4.111939 16711422
-1.0474486 -1.7530893 4.112 16711422
-0.9555344 -1.7575183 4.1119161 16711422
-0.89181179 -1.7773186 4.112 16711422
-0.030453181 -1.7519927 4.1119533 16711422
0.052924316 -1.7537941 4.1120114 16711422
0.15181184 -1.7530897 4.112 16711422
0.25111368 -1.7530879 4.112 16711422
0.3393966 -1.7680302 4.1119418 16711422
0.47406736 -1.7496465 4.1111999 16513788
0.52606565 -1.7684748 4.1117144 16382458
0.79326129 -1.7526633 4.1110001 16711422
0.8464306 -1.7563503 4.1117649 16711422
0.93469375 -1.7606046 4.1118698 16711422
1.0568428 -1.7650117 4.1118813 16711422
1.1633077 -1.7564955 4.1116333 16711422
1.2503797 -1.7530069 4.1119304 16711422
1.3518902 -1.753636 4.1119699 16711422
1.4487804 -1.7535174 4.112 16711422
1.5237006 -1.7610283 4.1117587 16711422
-2.5064206 -1.6522974 4.112 14406868
-2.4542484 -1.653928 4.1120415 15000032
-2.3514209 -1.6529434 4.112 15131361
-2.2449636 -1.6533011 4.112 15197155
-2.1582515 -1.6508769 4.112 15717847
-2.0841336 -1.6346555 4.1114998 15394792
-1.9347246 -1.6303091 4.1113 14802142
-1.8951024 -1.6947346 4.1114998 12169650
-1.6211506 -1.653115 4.1115217 12761532
-1.5501007 -1.6484528 4.1119161 12629436
-1.4611434 -1.652474 4.1119184 12169911
-1.3493099 -1.6330371 4.1117811 12235707
-1.2328061 -1.6507165 4.1118908 14473694
-1.1437635 -1.656077 4.1119523 16711422
-1.0474485 -1.6522982 4.112 16711422
-0.95042384 -1.6542593 4.1119375 16711422
-0.89467627 -1.6755569 4.112 16711422
-0.032338466 -1.6531453 4.1120291 16711422
0.05266298 -1.6543726 4.11202 16711422
0.15276043 -1.65255 4.112 16711422
0.25111365 -1.6522961 4.112 16711422
0.31806967 -1.6425472 4.1119571 16711422
0.49542835 -1.6208897 4.1110001 13881561
0.51620907 -1.6443129 4.1114283 13419468
0.85011721 -1.6474481 4.1118064 16711422
0.9295584 -1.6535714 4.1119208 16711422
1.0646563 -1.6381407 4.1118541 16711422
1.1577443 -1.6373357 4.1117492 16711422
1.2486751 -1.6566402 4.1119723 16711422
1.3519933 -1.6530887 4.1119695 16711422
1.4503736 -1.6522979 4.112 16711422
1.5209821 -1.6577169 4.1118665 16711422
-2.5064206 -1.5515046 4.112 14868446
-2.4525888 -1.5510867 4.1120181 15394790
-2.3516929 -1.5524029 4.112 15789294
-2.2442582 -1.5507741 4.112 15986672
-2.1485388 -1.5523192 4.1119876 16177369
-2.092135 -1.5437224 4.1119227 16179426
-1.9330556 -1.5898842 4.1110001 15789296
-1.6093754 -1.5592661 4.1111302 15722987
-1.5580047 -1.5592731 4.1118016 15460072
-1.4296626 -1.5623603 4.1118178 14999520
-1.3551105 -1.5570687 4.1118574 14933470
-1.2393636 -1.5529271 4.1119628 15987186
-1.1457982 -1.5470397 4.1119308 16645629
-1.0474486 -1.5515056 4.112 16711422
-0.97059107 -1.559893 4.1119514 16711422
-0.031112909 -1.5524024 4.1120348 16711422
0.050469961 -1.550542 4.112 16711422
0.15277937 -1.5523323 4.112 16711422
0.25065622 -1.5515976 4.112 16711422
0.32891011 -1.5532094 4.1119499 16711422
0.51070184 -1.5976355 4.1110001 13089483
0.85960579 -1.5536851 4.111587 16711422
0.92214805 -1.5680838 4.1118231 16711422
1.0615844 -1.5572115 4.1117682 16711422
1.1533173 -1.5583401 4.1119137 16711422
1.2460721 -1.5496768 4.1119723 16711422
1.3529732 -1.5506237 4.1119747 16711422
1.4451263 -1.5535188 4.1119928 16711422
1.5112622 -1.5931402 4.1113997 16711422
-2.5064206 -1.4584651 4.112 15131107
-2.4510005 -1.4511998 4.1120119 15526120
-2.3501041 -1.4504554 4.112 15789551
-2.2467084 -1.4507124 4.112 16052723
-2.1499329 -1.4493777 4.1119151 16184309
-2.0904644 -1.4574081 4.112 16184309
-1.6239655 -1.4117738 4.1114998 16579578
-1.5630536 -1.4517604 4.1117544 16513787
-1.4501517 -1.436861 4.111927 16579580
-1.3602585 -1.4443589 4.1118097 16579837
-1.2459186 -1.4532081 4.1118288 16645629
-1.145328 -1.4494117 4.1119294 16711422
-1.0474468 -1.4507087 4.1119938 16711422
-0.97643673 -1.4513693 4.1119261 16711422
-0.029136466 -1.4524666 4.112 16711422
0.052737441 -1.4509439 4.1120057 16711422
0.15181184 -1.4507116 4.112 16711422
0.24264435 -1.4520015 4.1119924 16711422
0.33692506 -1.4487262 4.111867 16711422
0.86675632 -1.453576 4.1117449 16711422
0.95723975 -1.4376917 4.111815 16711422
1.0547202 -1.4446874 4.1119165 16711422
1.168558 -1.4508449 4.1117377 16711422
1.2567412 -1.4479984 4.1118817 16711422
1.3510696 -1.4507095 4.1119938 16711165
1.4439371 -1.4515042 4.1119728 16250360
1.5492988 -1.4038507 4.1110001 16443887
-2.5065951 -1.3267529 4.1122851 15197154
-2.4502017 -1.3517773 4.1120186 15526121
-2.349833 -1.3499223 4.1120052 15723758
-2.2467084 -1.3499196 4.112 16052722
-2.1692266 -1.3539983 4.1118884 16052724
-1.6202257 -1.3692048 4.1117001 16513787
-1.5491456 -1.3479508 4.1115308 16579836
-1.4509209 -1.349064 4.111938 16645629
-1.3377837 -1.3720851 4.1116247 16645629
-1.2514287 -1.3455017 4.1118622 16711422
-1.1453779 -1.3524998 4.1119361 16711422
-1.0474485 -1.3499197 4.112 16711422
-0.97894722 -1.3450425 4.112 16711422
-0.89445871 -1.3960993 4.1110001 16711422
-0.02857084 -1.352194 4.112042 16711422
0.052510172 -1.3499215 4.1120057 16711422
0.15181179 -1.3499199 4.112 16711422
0.24504225 -1.3515009 4.1119652 16711422
0.31729734 -1.3507075 4.1117773 16711422
0.85167187 -1.3506838 4.1117039 16711422
0.96379578 -1.3466287 4.1118135 16645886
1.0302103 -1.3632344 4.1118441 16645630
1.1667264 -1.3546896 4.1117692 15263727
1.2540432 -1.3497036 4.111918 13092564
1.3511171 -1.3496885 4.112 14341600
1.4424076 -1.3479931 4.1119924 13420750
1.5496756 -1.3033996 4.112 12434622
-2.5064209 -1.2956463 4.112 15131867
-2.4367962 -1.2510076 4.1121144 15460071
-2.3498299 -1.2491254 4.112 15657965
-2.2472475 -1.2487026 4.1119819 15855344
-2.1496453 -1.2545241 4.1118994 16052723
-2.0939364 -1.2607566 4.112 16184053
-1.6237675 -1.2694932 4.1110001 16513531
-1.5361316 -1.2448945 4.1114998 16579836
-1.4544951 -1.2496524 4.1117435 16645629
-1.3635542 -1.2319486 4.1115999 16645629
-1.250736 -1.2526999 4.1118636 16711166
-1.144246 -1.2482717 4.1119657 16711422
-1.0474484 -1.249126 4.112 16711422
-0.95700908 -1.2467213 4.1118975 16711422
-0.89014167 -1.2491157 4.1119628 16711422
-0.013692159 -1.2512373 4.1122618 16711422
0.053246342 -1.2488962 4.1120114 16711422
0.15181184 -1.2491267 4.112 16711422
0.23252422 -1.2467842 4.1119165 16711422
0.33835018 -1.2715544 4.1119471 16711422
0.85400158 -1.245047 4.1113334 15461360
0.96571726 -1.2517731 4.1116185 15132140
1.0217493 -1.247135 4.1118212 12233654
1.176875 -1.2478081 4.1117964 12104632
1.2558976 -1.2530491 4.1119304 13092297
1.3519565 -1.2499774 4.112 12829124
1.4337649 -1.2453563 4.112 12368314
1.5454836 -1.2497674 4.1118913 12433851
-2.506624 -1.1458445 4.1123333 14999267
-2.447984 -1.1468459 4.1120396 15131362
-2.3498297 -1.1483346 4.112 15526122
-2.2469597 -1.147709 4.1119514 15657965
-2.1823263 -1.146837 4.1119571 15789295
-1.5423943 -1.1525978 4.1116562 16447994
-1.4728849 -1.1500826 4.1116838 16579580
-1.3384602 -1.1280838 4.1118155 16645629
-1.2385373 -1.1432567 4.1118069 16711165
-1.1442639 -1.1478648 4.1119733 16711422
-1.0468929 -1.1487566 4.112 16711166
-0.97125089 -1.1484191 4.1119328 16711422
-0.88887078 -1.1405808 4.112 16711422
-0.025519287 -1.1463484 4.1120539 16711422
0.052510187 -1.1483392 4.1120172 16645886
0.15181181 -1.1483346 4.112 16645630
0.24086483 -1.1469623 4.1119361 16711422
0.86971736 -1.1791798 4.1114163 13881814
0.95260304 -1.1482577 4.1117249 13158091
1.0929679 -1.1246661 4.112 12894149
1.164139 -1.1423422 4.1116128 12894662
1.2501149 -1.1471406 4.1119652 13158348
1.350516 -1.1485692 4.112 12959939
1.4444449 -1.1490164 4.1119862 12500415
1.5539255 -1.1337627 4.1118751 12631744
-2.5064676 -1.0475618 4.1120768 14868191
-2.4524951 -1.0487632 4.1120372 14933728
-2.3498294 -1.0475416 4.112 15262950
-2.2472508 -1.047677 4.1119876 15460330
-2.1713099 -1.0675353 4.1118603 15723501
-1.3411956 -1.0807427 4.1116467 16579836
-1.2442988 -1.0501804 4.1117883 16579837
-1.1461141 -1.0469937 4.1119194 16645629
-1.047447 -1.0475395 4.1119938 16645629
-0.9585095 -1.049698 4.1119056 16645629
-0.86855596 -1.0433599 4.1120195 16645629
-0.031445302 -1.0487443 4.1120181 16645886
0.052693173 -1.0474992 4.1120176 16645629
0.15181182 -1.0475415 4.112 16645629
0.23626533 -1.0533786 4.1119428 16645629
0.34273517 -1.0319103 4.1114998 16711422
1.0913596 -1.089409 4.112 12368838
1.1721801 -1.066069 4.1115751 13158088
1.2569554 -1.0440565 4.1119242 12962511
1.3513362 -1.0471617 4.1119699 13026502
1.435684 -1.0509216 4.112 12697280
1.5475378 -1.0441215 4.1118541 12302777
1.610042 -1.0288104 4.1121578 11973813
-2.5064206 -0.94674879 4.112 14670557
-2.45295 -0.94674897 4.112 14670810
-2.3514664 -0.94880307 4.1119652 15131107
-2.2499135 -0.95179737 4.1119442 15262695
-2.1854939 -0.96337205 4.1118002 15394794
-1.2116411 -0.98160869 4.1118751 16579837
-1.1360626 -0.97393191 4.1119361 16645629
-1.0464113 -0.94622052 4.1119757 16645373
-0.96989745 -0.94728816 4.1118512 16645629
-0.86098641 -0.95232314 4.1118884 16645630
-0.031514525 -0.94674861 4.112 16645629
0.052509923 -0.94674718 4.1119938 16645629
0.15169954 -0.95337492 4.1119142 16645629
0.23122729 -0.9619174 4.111917 16645629
1.2591141 -0.98575795 4.1118965 11049645
1.3612825 -0.95173508 4.1119499 11644852
1.4385597 -0.94680697 4.1119747 11250606
1.5710732 -0.95714682 4.1117435 11251378
1.6045779 -0.94917166 4.112 11381936
-2.5064206 -0.84983283 4.112 14669532
-2.4529543 -0.84983379 4.1120062 14538969
-2.3569903 -0.84882098 4.1119576 14868191
-2.283318 -0.84283316 4.1118994 14933471
-1.3373897 -0.84187472 4.1110001 16185079
-1.1065894 -0.85588092 4.1117854 16448251
-1.0497313 -0.85337651 4.1119909 15460587
-0.96538389 -0.83580816 4.1116662 10851235
-0.86326528 -0.8580088 4.1119628 14210009
-0.031514633 -0.84983468 4.112009 16645629
0.052509468 -0.84982723 4.1119742 16579837
0.12800337 -0.8499521 4.1119494 16579837
1.1063677 -0.84962618 4.1110001 12830667
1.3604332 -0.85495985 4.1119342 12501443
1.4382684 -0.84709185 4.1119184 12632257
1.5559469 -0.84558183 4.1117496 12500156
1.6075107 -0.88250738 4.112 12302523
-2.5064206 -0.75291687 4.112 14407896
-2.4529498 -0.75291693 4.112 14276054
-2.3677025 -0.75239569 4.1119747 14670556
-2.2746706 -0.74801147 4.1117616 14670559
-1.1137623 -0.75584167 4.111692 15066343
-1.044547 -0.76524752 4.1118531 12234418
-0.96717417 -0.75122058 4.1119413 7557706
-0.89451313 -0.77603602 4.1112499 7493194
-0.031514529 -0.75291729 4.112 11313062
0.052510083 -0.75291753 4.112 11774639
0.15466748 -0.7522254 4.1117487 12893894
0.20910136 -0.71415043 4.112 13230040
1.3632094 -0.76839089 4.111824 12303548
1.4469959 -0.75943953 4.1118951 12500414
1.5304854 -0.75829786 4.1117501 12172479
-2.5064206 -0.65212429 4.112 14144982
-2.4529502 -0.65212446 4.112 14144212
-2.3731947 -0.6628176 4.1117797 14407640
-2.2843056 -0.6500845 4.1117134 14407386
-1.379559 -0.67530191 4.1114998 15526637
-1.1069223 -0.66601521 4.1115999 13882583
-1.0601263 -0.65079945 4.1117911 11906226
-0.98704404 -0.67499977 4.1119041 7556673
-0.84876215 -0.63190496 4.1115999 5856093
-0.031514529 -0.65212387 4.112 7494482
0.045452293 -0.65737218 4.1118693 7168597
0.15591493 -0.64690995 4.1117177 7363413
0.21292067 -0.69864392 4.112 15464186
1.0644956 -0.68305433 4.1114998 12896203
1.3696924 -0.65554607 4.1118441 11383733
1.4444711 -0.66597801 4.1116896 11646393
1.5953778 -0.633982 4.1116667 11711158
-2.5064206 -0.55133158 4.112 14144470
-2.4558995 -0.55314779 4.112 14012370
-2.3666613 -0.54483646 4.1118565 14210005
-2.2819693 -0.56595206 4.1118145 14341338
-1.029091 -0.54824543 4.1116657 10524311
-0.9023149 -0.52807176 4.112 10329496
-0.84153986 -0.54466701 4.1118565 7829367
-0.031514525 -0.55133152 4.112 8152920
0.053003732 -0.54948199 4.1119351 9734772
0.1542674 -0.56305611 4.111774 7560014
1.3907747 -0.58398986 4.1114445 10989488
1.4239128 -0.53800535 4.1117377 11382704
1.5856965 -0.55413228 4.1115785 11250862
1.6108 -0.54451376 4.1120396 10725293
-2.5064206 -0.45053899 4.112 14144211
-2.4583955 -0.4500728 4.1119928 13880784
-2.3802953 -0.45612139 4.1118464 14143698
-2.2828183 -0.47368366 4.1110001 14143957
-1.0212243 -0.45784339 4.1116314 10062731
-0.93880016 -0.48610964 4.1111999 5458261
-0.84138507 -0.43971452 4.1118946 5329492
-0.031514529 -0.45176333 4.112 6903890
0.044329345 -0.45382112 4.1119018 6843752
0.1575025 -0.47562146 4.1110001 7164740
1.4232692 -0.45463789 4.1116662 8554645
1.5808126 -0.44200587 4.111619 6842998
1.6111481 -0.45201579 4.112 6054782
-2.5054049 -0.38835844 4.110333 13948116
-2.4598944 -0.39344665 4.112 13749456
-2.3765647 -0.39626607 4.112 13749968
-1.044125 -0.33950979 4.1115789 10064786
-0.96840018 -0.33290511 4.1114998 7365716
-0.85903043 -0.34142393 4.1115861 5787482
-0.058230754 -0.39227134 4.1107497 6769730
0.021955673 -0.39626607 4.112 4476237
1.3814735 -0.36309892 4.1115451 6119010
1.4349895 -0.32228714 4.111692 5593951
1.5795323 -0.34756929 4.1115513 7172459
-1.0245324 -0.29547346 4.112 10658703
-1.0319201 0.030156875 4.1110001 8487047
1.4118372 0.022405485 4.1110001 2961451
-2.5654843 -1.8130916 4.3686666 14868443
0.031440318 -1.8171415 4.3684998 16711422
-2.6265845 -1.7477784 4.3685384 14934496
-2.5675721 -1.7373735 4.3684545 15526119
-0.027529342 -1.749313 4.3684664 16711422
0.027752077 -1.7366258 4.3684545 16711422
-2.6282804 -1.6544576 4.3684998 15065313
-2.581321 -1.697512 4.368 15657446
-0.049716204 -1.6196409 4.369 16711422
-2.6517606 -1.5382051 4.3687496 15131107
-0.056206368 -1.5371925 4.3687997 16711422
-2.6489241 -1.4545661 4.3688664 15196900
-2.581321 -1.4916127 4.368 15724270
-0.050221678 -1.4465853 4.3688126 16711422
0.015208408 -1.4998487 4.368 16711422
-2.6440837 -1.3429602 4.3689184 15131362
-2.5874066 -1.3310113 4.368 15591656
-0.045979641 -1.344689 4.3689055 16711422
0.012503691 -1.3406199 4.368 16711422
-2.6471641 -1.2627277 4.3688474 15065058
-2.5981441 -1.2818888 4.369 15328738
-0.048137404 -1.2676605 4.3688631 16711422
-2.6537097 -1.1777004 4.3688569 14867679
-2.5572712 -1.1087673 4.3684998 15394021
-0.89531708 -1.106088 4.3633332 16645886
-0.050614815 -1.1678457 4.3686662 16645886
0.039555401 -1.1170044 4.3684998 16711422
1.6886302 -1.1045792 4.3520002 11184047
1.7033424 -1.1130128 4.369 11184814
-2.631165 -1.0845203 4.368 14736861
-0.89723653 -1.0871826 4.3562503 16711422
-0.036722176 -1.0880501 4.368 16645886
1.6886302 -1.0881674 4.3520002 12171190
-0.88394237 -0.52298909 4.3605003 6909557
1.7081289 -0.53121096 4.3605003 6318733
-2.0543711 -0.37984341 4.369 14013144
0.54275268 -0.38808125 4.369 14539737
-0.93733466 -0.94012499 5.888 7623754
2.5648975 -0.94488299 5.888 12765388
-0.92014676 -0.88937312 5.888 7622727
2.5580614 -0.80055737 5.888 12370112
-0.93837637 -0.76355082 5.888 7162688
2.5635302 -0.76170051 5.888 12238014
-0.97118968 -0.65253109 5.888 6572092
2.5288939 -0.66363305 5.888 7115689
-0.94202232 -0.53966105 5.888 6176062
2.5580614 -0.55076307 5.888 9480102
-0.94762564 -1.3313622 5.9115834 16711422
2.5664771 -1.3425088 5.9115834 11845063
-0.91281235 -1.1195329 5.9113331 6702667
-0.89079958 -1.1101813 5.9109998 6705728
2.5902774 -1.1270138 5.9115996 13750484
2.6131179 -1.1202314 5.9110994 13619151
-0.90989554 -1.0565364 5.911159 7427916
-0.88750541 -1.0499965 5.9109998 6903629
2.5879064 -1.0444593 5.9112 13487824
2.6154897 -1.0575026 5.911047 13027787
-0.92110562 -0.95169467 5.9110003 7623754
2.5857916 -0.96057659 5.9110003 13223883
2.6029916 -0.95262676 5.9109998 12960966
-0.92648619 -0.82876152 5.9109998 7359302
-0.87900329 -0.84743214 5.9116664 7105905
2.5834262 -0.81260073 5.9109998 12632003
2.6334393 -0.85074651 5.9116435 10987179
-0.92024589 -0.74574393 5.9111204 7162692
-0.86342192 -0.78703356 5.9115 7896188
2.5849783 -0.74352533 5.9112005 12368572
2.6077523 -0.74367118 5.9110003 12170677
-0.94231892 -0.65593433 5.9109731 6769216
2.5577762 -0.65247178 5.9109335 10793656
2.6057642 -0.67632544 5.9111428 11972783
-0.94846004 -0.56592506 5.9110832 6441018
-0.88533419 -0.54178488 5.9111667 6315095
2.5417006 -0.58300686 5.9109998 9218992
2.6208487 -0.55181903 5.9111996 10525590
-1.0134776 -2.0847683 6.1560001 16711422
2.6459169 -2.0963755 6.1560001 11775398
-0.99520904 -1.9303452 6.1632004 16711422
2.6686018 -1.935164 6.1599998 12305870
-0.94744712 -1.8326582 6.1606669 16711422
2.7374415 -1.8158348 6.1690001 15593202
-0.95995831 -1.7329378 6.1680341 16711422
2.6807058 -1.7309569 6.1662302 10984626
2.7187693 -1.7431175 6.1679997 14870252
-0.96659839 -1.6763746 6.166296 16711422
2.6800103 -1.6759079 6.1633997 10591411
2.7131271 -1.6808273 6.1679997 14542826
-1.0058064 -1.5188594 6.1440001 16711422
