# .PCD v0.7 - Point Cloud Data file format
VERSION 0.7
FIELDS x y z normal_x normal_y normal_z curvature
SIZE 4 4 4 4 4 4 4
TYPE F F F F F F F
COUNT 1 1 1 1 1 1 1
WIDTH 634
HEIGHT 1
VIEWPOINT 0 0 0 1 0 0 0
POINTS 634
DATA ascii
105.1566 104.94784 31.21105 0.10883794 -0.14243357 0.23904203 0.1577471
105.16437 104.94727 31.211744 0.12365608 -0.38417986 0.21717277 0.19504388
105.17728 104.94748 31.214966 0.53040367 -0.054069147 0.56930262 0.21543722
105.183 104.94521 31.214939 0.92193145 -0.079057254 0.35809505 0.12185244
105.01959 104.95626 31.219444 0.76693177 -0.58669847 0.46189761 0.12371147
105.06844 104.95803 31.217962 0.82028085 0.48474863 0.34308967 0.052287191
105.07241 104.95366 31.213665 0.79849166 0.28265998 0.58284676 0.11960435
105.14683 104.9509 31.211323 -0.1052174 0.36884758 0.93355232 0.15682292
105.1581 104.95242 31.211542 0.15484807 -0.62647372 -0.03599456 0.1527483
105.16372 104.95221 31.211901 0.16189457 -0.76975757 -0.20934089 0.17830192
105.17636 104.95302 31.213985 0.47721672 -0.44810799 -0.23747119 0.21597925
105.18179 104.95733 31.213633 0.73268765 -0.23462608 0.43901107 0.15122335
105.0198 104.96735 31.219896 0.88729829 -0.48680085 0.0046133217 0.11141028
105.05923 104.96847 31.218521 0.78311354 0.56003797 0.27106941 0.012848372
105.06414 104.96532 31.213694 0.72430849 0.42673221 0.54554254 0.070797578
105.10815 104.96474 31.211334 -0.085110195 -0.35465306 0.96058583 0.10197592
105.11146 104.96692 31.21224 -0.045210384 -0.30568033 0.97099876 0.099842712
105.15789 104.96413 31.21176 -0.14455788 -0.021385444 1.0102407 0.20933294
105.1727 104.96101 31.219048 -0.031059608 -0.23860836 1.0209904 0.2026189
105.18297 104.96565 31.215645 0.9449994 -0.063074954 0.29640386 0.10231815
105.01765 104.97615 31.218834 0.78322697 -0.63614184 -0.09988939 0.047690928
105.02608 104.97691 31.217365 0.62459135 -0.71721101 0.33373648 0.11112523
105.05496 104.97489 31.216106 0.70274442 0.47286922 0.51097775 0.08078292
105.09754 104.97649 31.212858 -0.18825537 -0.27133471 0.9978168 0.054304626
105.10321 104.97929 31.21336 -0.09907148 -0.21131639 0.9736613 0.047295939
105.18584 104.97495 31.215166 0.94316727 0.16650538 0.29285285 0.057451282
105.04779 104.98431 31.214277 0.75655192 0.28596652 0.62734973 0.13835959
105.05264 104.98643 31.212721 0.57517421 0.16454975 0.80107653 0.11930717
105.08939 104.98776 31.212215 -0.32997432 -0.2734006 0.93782407 0.047625534
105.09761 104.98431 31.213209 -0.17294508 -0.17544723 0.97174174 0.038161572
105.10125 104.9845 31.214312 -0.14108513 -0.15814058 0.9802987 0.034568164
105.12765 104.98698 31.212524 0.38159969 0.17823075 0.93700904 0.03002885
105.1304 104.9873 31.211506 0.45104399 0.20271951 0.92717099 0.027424039
105.17939 104.98923 31.215454 0.72107887 0.85985893 0.13610722 0.062426407
105.18322 104.98504 31.215044 0.82958871 0.69064778 0.1892585 0.061864246
105.05106 104.99327 31.218082 0.44200689 -0.028948564 0.90903336 0.14429441
105.06953 104.99712 31.214125 0.10308888 -0.30404806 0.94972855 0.11317936
105.07026 104.99634 31.214136 0.10006326 -0.28257746 0.9542852 0.11532119
105.12153 104.99555 31.213842 0.39824834 0.29137442 0.91378629 0.034455776
105.16591 104.99694 31.214682 -0.5759365 -0.82119077 0.047780171 0.04250811
105.17685 104.99127 31.217094 0.66584086 0.87611252 0.11599106 0.057824254
105.04842 105.00296 31.21981 0.43021426 0.082440674 0.93916345 0.17311944
105.0648 105.00353 31.21888 0.090305008 -0.32898512 0.96786731 0.11955092
105.09122 105.00201 31.219765 -0.023669446 -0.25868368 0.96808493 0.13807182
105.11096 105.00826 31.212831 -0.060913801 -0.38660502 0.91997921 0.22477883
105.12162 105.00967 31.213974 -0.033911712 -0.36395335 0.94276488 0.20590426
105.14984 105.00943 31.217215 -0.69605225 -0.67955732 0.23462887 0.11493316
105.15543 105.00336 31.214186 -0.65055823 -0.74218416 0.23717541 0.077896655
105.03571 105.01761 31.217773 -0.21532269 -0.76870555 -0.59011292 0.11026752
105.04442 105.01811 31.217865 -0.056142069 -0.81063938 -0.48727193 0.12946591
105.05555 105.01907 31.219215 0.12956606 -0.32799149 -0.081958331 0.15819298
105.06236 105.01946 31.219685 -0.048526585 0.47051302 0.92722154 0.21818718
105.12411 105.01277 31.21382 0.16461058 -0.17934802 0.98236316 0.13524389
105.13375 105.01782 31.212563 0.0091839731 0.021514058 0.17271614 0.15615007
105.14565 105.01542 31.214972 0.41947645 0.32001725 -0.3207781 0.14261857
105.01844 105.02873 31.219398 1.0731864 -0.26517799 0.10170939 0.1736479
105.02505 105.02595 31.218138 0.66028398 0.25442868 0.32494587 0.14676638
105.0351 105.02332 31.216553 -0.2888597 -0.72119731 -0.38492921 0.15039353
105.04451 105.02472 31.21525 -0.11556049 -0.71059078 -0.47431633 0.17428775
105.05439 105.02502 31.217579 0.061998446 -0.25171742 -0.12806536 0.15383868
105.06631 105.02496 31.218418 -0.097154357 0.29374105 0.70887697 0.12627642
105.0748 105.02511 31.218834 -0.095894285 0.3739776 0.91294044 0.11485672
105.08543 105.02679 31.219278 -0.046761576 0.3804332 0.94356662 0.13896692
105.09446 105.0276 31.219334 -0.091586001 0.357108 1.0028389 0.19045889
105.10361 105.02872 31.219543 -0.037566047 -0.031700652 0.46567497 0.19713086
105.11542 105.02826 31.215031 0.63959372 -0.20150168 -0.35350907 0.15770264
105.12198 105.02533 31.21468 0.89730018 0.49932066 -0.074932851 0.14297409
105.01863 105.03321 31.217361 0.95443839 -0.51527107 0.051391609 0.17929825
105.02425 105.03439 31.214468 0.78731394 -0.53139102 0.23484878 0.17759062
105.03201 105.0322 31.215633 0.21318966 -0.98035663 0.1246101 0.18115662
105.04964 105.03016 31.214792 0.20026393 -0.73274529 -0.65285873 0.2036137
105.05452 105.03271 31.216246 -0.0098126978 -0.10184797 0.078466728 0.20019075
105.06632 105.0323 31.217798 -0.18256965 0.21856678 0.93747914 0.14896172
105.07584 105.03586 31.219025 0.063294999 -0.038667757 1.0087594 0.1458952
105.08421 105.0331 31.219173 0.090096161 0.041588657 0.98664373 0.15430874
105.09466 105.035 31.218218 0.1368859 -0.076663911 0.99453217 0.20958506
105.10607 105.03533 31.216206 0.085739501 -0.26605952 -0.12070438 0.13547994
105.11803 105.03671 31.216934 0.92751724 0.19677216 -0.01480265 0.18552633
105.12033 105.03678 31.215111 0.48086381 0.11272069 0.0083797574 0.18349883
105.05856 105.04202 31.215498 -0.39690849 0.7167446 0.65233719 0.18199183
105.06861 105.04366 31.212038 -0.26143029 0.96149427 0.48663959 0.15749507
105.0779 105.04292 31.214821 -0.23637109 0.68023932 0.71655142 0.14805591
105.08995 105.04385 31.218555 0.056878105 0.28321728 0.95967185 0.17490405
105.09825 105.04601 31.217087 0.2988393 -0.78905034 0.23362459 0.22376773
105.10399 105.04504 31.215004 0.5064491 -0.22587551 0.68656641 0.19938116
105.11784 105.04572 31.215303 -0.69400084 -0.55438519 -0.16110517 0.15413719
105.12062 105.04359 31.212395 -0.84673405 -0.61974651 -0.24772337 0.1937945
105.09824 105.05186 31.213942 -0.024742734 -0.96461588 -0.25943494 0.15970522
105.10429 105.05253 31.214979 -0.20803058 -0.79763353 -0.20181032 0.14319471
105.11311 105.05183 31.213997 -0.48592353 -0.77427912 -0.23796025 0.13375652
105.04997 104.86974 31.222698 -0.29522437 -0.94763947 0.12954754 0.085191742
105.05355 104.86829 31.225115 -0.1254157 -0.97731298 0.14044499 0.081151135
105.06409 104.86897 31.224213 0.44731998 -0.95324641 0.00042843842 0.069213003
105.04504 104.87496 31.224874 -0.53830677 -0.82099819 -0.064356297 0.088744484
105.05055 104.87048 31.228271 -0.28616637 -0.93981731 0.19374116 0.078097701
105.06811 104.87135 31.22509 0.56646895 -0.91059738 -0.028340816 0.060872383
105.07336 104.87575 31.22529 0.58443886 -0.8546046 -0.055177156 0.067898437
105.02876 104.88918 31.226782 -0.56085747 -0.65229458 0.13701178 0.072635345
105.03583 104.88528 31.226564 0.099615164 0.03259455 0.13466178 0.12975655
105.0406 104.88045 31.224195 -0.50771648 -0.45965624 -0.19078285 0.11713848
105.07845 104.88091 31.224152 0.59806794 -0.79864281 -0.077152982 0.050560851
105.08406 104.88571 31.224977 0.48332149 -0.8805365 0.0071300785 0.042704288
105.09361 104.8899 31.223091 0.18437244 -0.9990012 0.11714019 0.054570261
105.14736 104.88932 31.229666 0.12402923 -1.0027612 0.050725956 0.1062898
105.15034 104.88978 31.228775 0.29449964 -0.9573102 0.085255235 0.10194463
105.01785 104.89806 31.226658 -0.1592868 -0.18799461 -0.044424511 0.094534367
105.02406 104.89368 31.226213 -0.58801353 -0.68045098 -0.0046123504 0.087728016
105.03299 104.89255 31.221689 0.53437752 0.26073745 0.54231387 0.14458326
105.096 104.89432 31.225403 0.5136531 -0.65722746 -0.40303993 0.16588472
105.10394 104.89182 31.224892 0.15054885 -0.97471279 0.1715004 0.058713824
105.11062 104.89666 31.225082 0.19298232 -0.96683842 0.20605347 0.10622875
105.12742 104.89979 31.224794 -0.26264054 -0.98055434 0.049823601 0.14372189
105.13515 104.89427 31.225132 -0.35905641 -0.44576508 -0.22361453 0.16834877
105.14482 104.89102 31.22456 -0.088304535 -0.97268718 -0.24140547 0.14267334
105.15439 104.89555 31.225088 0.53109527 -0.83150911 0.041003417 0.12060484
105.00822 104.90862 31.227016 0.80861527 0.58340907 -0.1132224 0.081825666
105.01388 104.90377 31.226007 0.73628914 0.63461685 0.14784807 0.11296225
105.02492 104.90533 31.222416 0.49129072 0.42981821 0.75713331 0.1349443
105.03331 104.90857 31.220375 0.47963864 0.24470128 0.8680473 0.14810979
105.09761 104.90318 31.220888 -0.34012589 0.46780971 0.81942332 0.21208614
105.10184 104.90946 31.220835 -0.26224107 0.55809206 0.78793126 0.13232686
105.1162 104.90007 31.224569 0.09047211 -0.99353683 0.18172626 0.13156
105.12185 104.90034 31.224569 -0.066151142 -1.0069292 0.14816847 0.13864776
105.13315 104.90449 31.22489 0.7588225 0.28457952 0.58026141 0.1446784
105.15832 104.90519 31.224897 0.79128331 -0.5676952 0.13327321 0.13587172
104.99999 104.91843 31.222658 0.83918935 0.41424254 -0.36312234 0.056205358
105.00597 104.91427 31.22649 0.69391352 0.5246914 -0.049994063 0.098482735
105.01507 104.91348 31.221275 0.48537439 0.45211777 0.7797482 0.16953759
105.02744 104.9153 31.221947 0.3722252 0.32869101 0.88046515 0.14412253
105.03318 104.91413 31.221134 0.28187031 0.16382301 0.83181566 0.12270138
105.04308 104.91917 31.225981 -0.26691321 -0.60159409 0.78614533 0.14197288
105.07642 104.91946 31.224766 0.93119395 0.36831728 0.013734711 0.060573764
105.13654 104.91554 31.225086 0.71780127 -0.032022137 0.5623194 0.19254516
105.14708 104.91576 31.221542 0.20252046 -0.19322172 0.74913192 0.23987742
105.15714 104.91181 31.223459 0.6271472 -0.35252872 0.30544385 0.18229517
105.16338 104.91586 31.225187 0.87716883 -0.45136175 0.14754206 0.11015581
104.99728 104.92724 31.224905 0.92622739 0.23600158 -0.29939947 0.12663357
105.00258 104.92353 31.224903 0.71027666 0.48773149 0.1723212 0.15389986
105.017 104.92621 31.220152 0.21245527 0.20696604 1.0358068 0.17183836
105.02674 104.92606 31.223782 0.1476409 -0.091556937 0.65155631 0.20134753
105.03242 104.92383 31.223103 -0.36997068 -0.41831499 0.79503554 0.12782834
105.04498 104.92438 31.223261 0.12163643 -0.69761819 0.75184017 0.23651658
105.07513 104.9242 31.224974 0.97122812 0.14429933 0.024691263 0.047541399
105.13834 104.92258 31.225571 0.65620059 -0.38791794 0.39687899 0.2241734
105.14214 104.92496 31.224298 0.51939958 -0.78882647 0.081590578 0.23640473
105.15461 104.92249 31.222319 -0.306995 -0.30810905 0.88482422 0.25968477
105.16773 104.92135 31.224232 0.75406468 -0.50107545 0.27906224 0.10259509
105.17337 104.92554 31.224916 0.82932073 -0.48796868 0.27460214 0.058105472
104.99312 104.935 31.22452 0.97479624 -0.13459145 -0.21377368 0.11964503
105.00515 104.93289 31.2227 -0.043926369 -0.32538977 0.78481728 0.23504852
105.01424 104.93739 31.223513 0.011335731 -0.3002049 0.86335164 0.21787544
105.02569 104.93289 31.222635 -0.66032243 -0.73718292 0.93620831 0.16132909
105.03142 104.93009 31.226004 -0.54307216 -0.53671694 0.64651817 0.07325992
105.07429 104.93508 31.224871 0.98069113 0.17221601 0.095877051 0.030137252
105.13654 104.93468 31.225351 0.8200084 0.048724879 0.57377994 0.14826217
105.14433 104.93203 31.222712 0.66893083 -0.42352709 0.26426116 0.23810177
105.17817 104.93317 31.226 0.84512991 -0.34921885 0.40265939 0.061144195
105.18159 104.93712 31.223337 0.87796748 -0.26319727 0.40001845 0.066246837
104.99576 104.94431 31.225296 0.8303526 -0.69315314 0.044036239 0.12402771
105.00466 104.94769 31.223503 0.29798451 -1.0470588 0.43536237 0.16092952
105.01268 104.94626 31.225901 -0.29029924 -0.93133044 0.72866601 0.20159496
105.02119 104.94078 31.226643 -0.39884844 -0.74882901 0.79554522 0.23898824
105.0724 104.94407 31.224878 0.93661761 0.31702322 0.20164782 0.033841722
105.17899 104.94589 31.227806 0.89005113 -0.13480099 0.43335873 0.068311714
105.18153 104.9445 31.223083 0.91017056 -0.11849689 0.39558062 0.073497213
105.00545 104.95095 31.228228 0.41375688 -1.0388576 0.37699425 0.14268351
105.01468 104.95578 31.227133 0.48507801 -0.82995766 0.3240858 0.10569546
105.06675 104.95521 31.2265 0.84122717 0.49934441 0.24293515 0.02412626
105.07048 104.95203 31.221846 0.87717432 0.43882966 0.25604197 0.037927005
105.179 104.95498 31.22447 0.93941545 -0.10746146 0.32397887 0.10304604
105.18018 104.95561 31.220928 0.94948417 -0.071872011 0.3065953 0.10033154
105.05777 104.96661 31.226168 0.79255909 0.56078774 0.23977625 0.0056248247
105.06261 104.96204 31.222898 0.80535239 0.54327244 0.24721372 0.010941625
105.17954 104.9612 31.227657 0.9403879 -0.082995072 0.32961169 0.076158516
105.1815 104.96524 31.224245 0.94947797 -0.022227114 0.31185922 0.065607123
105.04706 104.97722 31.222847 0.79948622 0.52282351 0.29149157 0.10925981
105.05331 104.97281 31.226217 0.75143433 0.61244506 0.24376263 0.013182919
105.18355 104.97497 31.224981 0.94791967 0.15117636 0.28216752 0.045025911
105.03612 104.98466 31.227798 0.66102302 -0.23803915 0.75475496 0.14878066
105.04394 104.98419 31.222662 0.89094305 0.33346066 0.31665954 0.19555257
105.17849 104.98898 31.225233 0.74892616 0.8050676 0.1443273 0.04268821
105.18223 104.98412 31.22459 0.86427486 0.57183611 0.20355575 0.042627539
105.05286 104.99486 31.227962 0.905038 0.12629944 0.51362032 0.24540609
105.07483 104.9973 31.222507 0.11912305 -0.48156479 0.96295059 0.24010588
105.08514 104.99803 31.220453 -0.19932617 -0.44591856 0.95684195 0.20498617
105.1665 104.998 31.225246 -0.12859534 -0.14332786 -0.024783526 0.018239891
105.17505 104.99201 31.225195 0.66429412 0.85989112 0.11513985 0.036220301
105.03802 105.00944 31.227491 -0.080812454 -0.89169973 -0.47125781 0.090709746
105.04356 105.00818 31.229078 0.0040293816 -0.71484274 -0.22149219 0.13512014
105.0671 105.00102 31.224545 0.23890486 -0.33833331 0.99786723 0.1862357
105.08559 105.0076 31.224335 -0.094828218 -0.18067382 0.99466515 0.15346156
105.158 105.00314 31.223892 -0.68543643 -0.72853392 -0.098080598 0.020322705
105.16093 105.00107 31.227497 -0.64334279 -0.75650084 -0.12877624 0.013040649
105.01878 105.01926 31.228668 0.96277684 0.26260066 0.14022395 0.16182831
105.02608 105.01766 31.226622 0.47578305 0.31207564 0.20018777 0.15293857
105.03461 105.01552 31.225225 -0.33215037 -0.57555693 -0.44622764 0.16272375
105.04472 105.01516 31.225042 0.14514814 0.026315983 0.25801939 0.21139851
105.05418 105.01747 31.223536 0.067677997 -0.14037341 0.059390362 0.1994139
105.06405 105.01836 31.22311 0.14418413 -0.64712989 -0.54162568 0.10998543
105.07456 105.01905 31.224058 0.16700643 -0.7512117 -0.63535595 0.11814433
105.08229 105.0191 31.224442 0.040875848 -0.16866039 -0.10773357 0.11204907
105.09291 105.01491 31.227446 -0.0234577 0.19848041 0.98554754 0.16642396
105.12786 105.01891 31.229918 0.69654328 0.78732139 0.19760489 0.13061538
105.13807 105.01675 31.224058 -0.58370095 -0.80361658 -0.16749363 0.11798099
105.1444 105.01579 31.224901 -0.24414897 -0.35024005 -0.089227445 0.070596762
105.01699 105.02586 31.225451 1.0072616 -0.070067085 0.054591026 0.16093358
105.02344 105.02277 31.222565 0.76834989 0.30325267 0.29735586 0.15372962
105.03682 105.02595 31.222219 -0.019813269 -0.89717531 -0.034530979 0.19994743
105.04524 105.02304 31.222849 0.020361567 -0.036467668 0.53654677 0.22746271
105.05458 105.02274 31.222101 -0.0042405664 0.12241326 0.70484841 0.22169673
105.06703 105.02343 31.221607 0.041609965 -0.13185096 0.65365398 0.14434324
105.07491 105.02412 31.221628 0.015460926 -0.035749275 0.56466198 0.11802572
105.08511 105.02471 31.221516 0.026917445 0.1465607 0.78214371 0.15829781
105.09653 105.02578 31.22179 -0.16340035 0.52752382 0.77627474 0.15318324
105.10401 105.02744 31.223152 -0.15134816 0.17737064 0.46009812 0.16988271
105.11511 105.02797 31.226973 0.57931679 -0.50541419 -0.41543281 0.19538832
105.12029 105.02971 31.220478 0.99317265 0.056408033 -0.11735544 0.11015972
105.01767 105.03124 31.22386 0.94440335 -0.33457074 -0.019545207 0.14975946
105.02545 105.03219 31.224913 0.71236336 -0.65843517 -0.11951113 0.17931356
105.03453 105.03215 31.225876 0.41236115 -0.89676666 -0.018324826 0.18137988
105.04487 105.03561 31.228493 0.13252436 -0.9450087 0.29168013 0.16314526
105.0555 105.03574 31.226175 0.15275089 -0.76989657 0.59904575 0.17363334
105.06576 105.03522 31.224531 0.13458736 -0.6175831 0.77295345 0.14011432
105.07467 105.03448 31.223982 0.17524938 -0.5335111 0.83305579 0.14340141
105.08426 105.03345 31.222361 0.30396771 -0.41575181 0.88131791 0.18426181
105.09973 105.03586 31.225395 -0.16026913 0.16401549 0.98758572 0.23789255
105.10353 105.03416 31.222734 -0.28264898 0.31200594 0.90567553 0.20798874
105.11697 105.03463 31.223534 0.77475768 -0.047351204 -0.21611749 0.19492203
105.12061 105.03561 31.227613 1.0374613 0.13955814 -0.11779978 0.14547026
105.0493 105.04125 31.228962 0.23628363 -0.99746799 0.04099375 0.074274279
105.05519 105.043 31.227985 0.24797474 -1.0098282 0.23497415 0.098615594
105.06471 105.04549 31.227726 0.28632775 -1.0149921 0.32389501 0.11538094
105.07487 105.04743 31.22802 0.22186865 -0.99534833 0.26452884 0.10625301
105.08598 105.04749 31.226721 0.23869063 -0.93144089 0.10550464 0.11535364
105.09652 105.04716 31.225161 0.12048847 -0.93836254 -0.0038828971 0.18056719
105.10366 105.04805 31.224882 -0.19726625 -0.69700158 0.00074073108 0.15586881
105.11645 105.04524 31.224281 -0.49573752 -0.49869084 -0.087124623 0.13823907
105.12019 105.04099 31.228489 0.7089299 0.28150108 -0.0014418069 0.13114536
105.08738 105.05031 31.22431 0.13618477 -0.98977506 -0.11240875 0.061081946
105.09373 105.05082 31.223293 0.067153111 -0.98080724 -0.17513268 0.072204918
105.10512 105.05044 31.221689 -0.27694303 -0.93326169 -0.22626951 0.12936553
105.11097 105.05082 31.222357 -0.41375089 -0.8886202 -0.19151039 0.10111734
105.05657 104.86906 31.233681 -0.056989387 -0.97757673 0.20013376 0.068606593
105.06381 104.86943 31.234333 0.31279436 -0.98067737 0.11392751 0.059099134
105.04575 104.87611 31.23456 -0.47430944 -0.8337059 0.26781753 0.064972654
105.05273 104.87159 31.236109 -0.25193319 -0.92746484 0.26546326 0.065174907
105.06818 104.87148 31.23418 0.49145344 -0.92957044 0.064894572 0.048372801
105.07465 104.87615 31.235117 0.56957376 -0.8665992 0.022620697 0.045130532
105.02927 104.88946 31.230621 -0.63473308 -0.72730052 0.27765828 0.055785947
105.03605 104.88609 31.234482 -0.35585567 -0.38301873 0.15542279 0.087822348
105.04125 104.88142 31.236139 -0.63785088 -0.71898788 0.270412 0.065192036
105.08347 104.88387 31.235607 0.54116821 -0.84342504 0.010432722 0.040697549
105.14677 104.88965 31.233112 0.14617948 -0.99432623 0.093595505 0.10737365
105.01864 104.8987 31.231876 0.21934558 0.20910279 -0.1399176 0.063460298
105.02523 104.89488 31.234398 -0.59801626 -0.66155928 0.35402134 0.054952156
105.03203 104.89148 31.238226 -0.49124733 -0.51381987 0.23811741 0.075365521
105.09661 104.89245 31.235094 0.464008 -0.8728056 0.053025752 0.088902116
105.10482 104.89681 31.235209 0.23990142 -0.95742315 0.16752823 0.088710517
105.1283 104.89749 31.236387 -0.12080258 -0.15606232 -0.016714429 0.16292581
105.13452 104.89311 31.234659 -0.57744294 -0.85063648 -0.14903739 0.14705841
105.14449 104.89071 31.234922 0.049960241 -1.0005604 0.081846215 0.11839605
105.15389 104.89648 31.234604 0.60111541 -0.76445889 0.21701629 0.1049378
105.00867 104.9091 31.231277 0.77467197 0.54276103 -0.33580622 0.054199725
105.01455 104.90502 31.234524 0.69418043 0.58998263 -0.41143206 0.061800759
105.02163 104.90134 31.238386 0.4128761 0.40253553 -0.26907748 0.070514269
105.11639 104.90215 31.234112 -0.023146886 -0.99656111 0.10988049 0.13964987
105.1272 104.90414 31.235229 0.86592096 0.2457543 0.33295044 0.1503489
105.13059 104.90621 31.230597 0.84509468 0.2482357 0.47032261 0.15331854
105.15702 104.90499 31.234856 0.77118695 -0.57721287 0.24628797 0.10773651
105.0074 104.91461 31.234247 0.76639265 0.5532757 -0.30847695 0.066937707
105.01129 104.91238 31.238426 0.72184122 0.55473679 -0.41069978 0.058824655
105.03799 104.91934 31.230019 -0.45739153 -0.60439432 0.66608983 0.18266074
105.08267 104.91495 31.239233 0.87959862 0.45047855 -0.16342478 0.063764811
105.12814 104.91309 31.236755 0.91886383 -0.024639573 0.37947276 0.15114537
105.13409 104.91624 31.234728 0.8304038 -0.12565517 0.38409048 0.20291492
105.15872 104.91335 31.236328 0.87111002 -0.39449295 0.28139296 0.12330519
105.16232 104.91663 31.233727 0.8701086 -0.39376235 0.28684366 0.095733531
104.99888 104.92814 31.234024 0.90576583 0.28680542 -0.31544599 0.1055911
105.00271 104.92375 31.235439 0.84171516 0.45089406 -0.27929136 0.10285789
105.02737 104.92371 31.232908 0.77405828 0.48808223 -0.33784232 0.20185533
105.03404 104.92725 31.234299 0.7415871 -0.075597443 -0.083575711 0.20951067
105.04379 104.92489 31.234846 -0.15755415 -0.76071435 0.59631968 0.14219896
105.07522 104.92674 31.234856 0.97796577 0.18804128 0.0033895955 0.056232203
105.12919 104.92507 31.238287 0.89804173 -0.3141306 0.33910316 0.047895093
105.1345 104.92376 31.234804 0.69460976 -0.71027696 0.10415515 0.15688901
105.16516 104.9249 31.235659 0.81722218 -0.38750321 0.42523965 0.083313555
105.17093 104.92693 31.231489 0.81062913 -0.40023375 0.42741588 0.04506208
104.99545 104.93504 31.235003 0.96670222 0.019133484 -0.24730645 0.099607214
105.01665 104.93283 31.230534 0.91615391 0.37040731 0.15531978 0.24614491
105.02629 104.93581 31.235239 1.1372006 0.40415469 -0.31462604 0.23250861
105.03355 104.93323 31.23654 0.7476179 -0.62615144 0.024262777 0.19382812
105.04321 104.93291 31.237423 0.34741729 -0.8926698 0.36248475 0.14503302
105.06828 104.93895 31.235435 0.77271205 0.51839972 0.37408593 0.17525585
105.07378 104.93382 31.234383 0.92027867 0.24672021 0.076555595 0.039379731
105.13361 104.9319 31.232922 0.89053035 -0.18545035 0.42186436 0.083074115
105.16859 104.93372 31.237766 0.81634808 -0.30547991 0.48949483 0.05584361
105.17249 104.93574 31.234436 0.82643455 -0.28044388 0.48741132 0.053810719
104.99545 104.94504 31.234901 0.8994534 -0.54610032 -0.049557749 0.10129596
105.00049 104.94987 31.230656 0.70582443 -0.86734706 0.14091669 0.12031762
105.01884 104.94589 31.233255 -0.34454191 -0.86317557 0.63228083 0.25129014
105.02159 104.94252 31.231422 -0.33976573 -0.68096185 0.62881458 0.15440372
105.05991 104.94434 31.234873 -0.3373307 -0.84238613 -0.50097549 0.18726313
105.06738 104.94714 31.235088 0.7249307 0.28156382 0.15581043 0.059355382
105.07157 104.9419 31.233419 0.91936201 0.36876702 0.17549007 0.027605673
105.17413 104.94531 31.235464 0.85626584 -0.19485177 0.47771063 0.051984578
104.99947 104.95035 31.237514 0.77296662 -0.78465569 0.020535581 0.098236263
105.00457 104.95303 31.235126 0.58661324 -0.93727005 0.16343684 0.11523686
105.01302 104.95435 31.234852 -0.016584139 -1.175902 0.48536456 0.1724647
105.05933 104.95834 31.238237 0.81481928 0.53380454 0.22713839 0.029379141
105.06529 104.95243 31.235241 0.83959544 0.49718648 0.2376546 0.022352669
105.17591 104.95509 31.235014 0.89644414 -0.17274277 0.40672377 0.063500874
105.01852 104.96143 31.233927 0.79635966 -0.63576996 0.031471223 0.084154785
105.02122 104.96474 31.237856 0.81743228 -0.59444416 -0.009231953 0.084329419
105.05634 104.96515 31.234976 0.79567033 0.55786663 0.23572214 0.014365156
105.06039 104.96112 31.230995 0.80617869 0.54149854 0.24136324 0.01017739
105.17851 104.96404 31.235661 0.92470694 -0.10564985 0.36498585 0.04684874
105.18063 104.96774 31.23222 0.94205457 -0.039155927 0.33383253 0.046586905
105.0458 104.97544 31.235329 0.868321 0.51798511 0.14058803 0.14838672
105.17961 104.97401 31.239046 0.92734259 0.083861284 0.35663247 0.032340039
105.18125 104.97518 31.234297 0.9372316 0.13231933 0.31964087 0.036645319
105.04172 104.98733 31.230791 0.93720359 -0.34911096 0.40568933 0.2345705
105.17764 104.98715 31.235161 0.80176479 0.66505802 0.2202118 0.035968814
105.181 104.98254 31.23313 0.89423907 0.44417739 0.26156309 0.036528595
105.04352 104.99536 31.233273 0.93303871 0.0020628124 0.55937868 0.25125206
105.05288 104.99292 31.239431 0.96565276 0.34450656 0.26694629 0.25585276
105.16724 104.99612 31.236164 0.38803437 0.54059368 0.099434018 0.028563159
105.17324 104.99177 31.235077 0.68049556 0.83716279 0.1620831 0.034107354
105.02853 105.00911 31.238209 0.46137244 0.55791575 0.16102886 0.14375395
105.0341 105.00855 31.23683 -0.37239471 -0.76887906 -0.29146832 0.16726135
105.04422 105.00682 31.235313 0.017340902 -0.82093972 -0.3380433 0.10812746
105.05145 105.00745 31.236174 0.13097592 -0.90039426 -0.41213378 0.062697202
105.07549 105.00764 31.231174 0.27028117 0.33782583 0.9539609 0.22442372
105.14948 105.00782 31.236904 -0.72303104 -0.6658442 -0.22700602 0.025664147
105.15537 105.00385 31.233664 -0.6631456 -0.72672611 -0.19795181 0.01762124
105.16063 105.00022 31.23584 -0.59435648 -0.78101236 -0.19168651 0.016558034
105.01733 105.01784 31.235363 0.97892976 0.21708925 0.045201618 0.15186775
105.02461 105.01366 31.234699 0.76584721 0.559596 0.21882012 0.1488422
105.03468 105.01137 31.232704 -0.24333547 -0.45556867 -0.26120988 0.19119485
105.04374 105.0139 31.235153 0.16068697 -0.7308411 -0.12752311 0.23937087
105.05413 105.01636 31.235104 0.26655111 -0.87510955 -0.38268885 0.18111518
105.0637 105.01839 31.234713 0.37519792 -0.83055544 -0.31615975 0.17191289
105.07462 105.01649 31.23118 0.16208136 -0.39811453 -0.030780107 0.16192424
105.10554 105.01997 31.239101 0.41353387 -0.86514091 -0.28936979 0.098298319
105.1128 105.01965 31.239834 0.56530869 -0.82172561 -0.22286189 0.14380264
105.12814 105.01698 31.235373 0.70828748 0.74878103 0.20852579 0.14222458
105.13586 105.01399 31.233007 0.016673505 -0.015878528 0.0082817227 0.1135595
105.14479 105.01369 31.235609 -0.63354295 -0.72913092 -0.26172861 0.039745253
105.01688 105.02464 31.234804 1.0032095 -0.073732547 -0.041363351 0.14356504
105.02371 105.02839 31.235975 0.83556527 -0.49981913 -0.21550611 0.15016039
105.03264 105.02978 31.239027 0.5783962 -0.74632877 -0.32884169 0.13981877
105.04317 105.02013 31.236977 0.10731287 -0.97547889 -0.19764918 0.28390783
105.05907 105.02083 31.236198 0.40986639 -0.86154455 -0.29445115 0.19962585
105.06571 105.02228 31.235769 0.398592 -0.86887133 -0.26467416 0.18859804
105.07573 105.02483 31.235292 0.37446016 -0.88536209 -0.18577698 0.215977
105.08418 105.02673 31.234541 0.23212998 -0.90865314 -0.32816833 0.20873153
105.09578 105.02699 31.235785 0.24335486 -0.86812025 -0.3865093 0.1687647
105.10519 105.02373 31.235462 0.42820671 -0.81663609 -0.37856999 0.13254483
105.11671 105.02419 31.23457 0.67550504 -0.78166533 -0.32582021 0.16954866
105.12154 105.02738 31.236254 1.010558 -0.55408293 -0.22147748 0.16708663
105.01914 105.03066 31.232887 0.87475377 -0.46346524 -0.16357702 0.11340009
105.02714 105.03108 31.232733 0.6998381 -0.6592921 -0.26684418 0.14713526
105.03577 105.03159 31.234322 0.52547121 -0.80312043 -0.26182505 0.15565801
105.04496 105.03526 31.234934 0.30053353 -0.93853605 -0.018901683 0.15784547
105.05123 105.03918 31.239035 0.26967424 -0.90527093 -0.32870501 0.061108362
105.08521 105.03004 31.234713 0.22502846 -0.9600032 -0.17072938 0.2308961
105.09509 105.0324 31.236069 0.11573547 -0.63935757 0.036797151 0.20647095
105.12222 105.03457 31.234816 1.0679778 0.062112436 -0.068534896 0.13374598
105.04955 105.04086 31.2337 0.27789316 -0.9447158 -0.20414938 0.057622053
105.0552 105.04266 31.23464 0.28233582 -0.94256788 -0.22179122 0.057138026
105.06506 105.04533 31.234703 0.24647179 -0.93887413 -0.26835328 0.065681167
105.07489 105.04745 31.234655 0.15943423 -0.95471442 -0.26021108 0.061315902
105.08514 105.04784 31.234545 0.13407646 -0.96417832 -0.21856408 0.076718584
105.09519 105.04759 31.234745 0.070926584 -0.97134888 -0.20334172 0.10455781
105.10469 105.04872 31.235022 -0.21999271 -0.94452322 -0.23854762 0.100259
105.11588 105.04706 31.235226 -0.63766503 -0.74760658 -0.15314597 0.10617868
105.12113 105.04211 31.235191 0.41214362 0.11231242 0.0011385664 0.11268234
105.04776 104.878 31.244125 -0.46512672 -0.80483669 0.36667812 0.042947479
105.05456 104.87402 31.245035 -0.24603769 -0.89842933 0.34462127 0.053415675
105.06416 104.87239 31.245718 0.17112099 -0.95994228 0.2673052 0.055969134
105.07536 104.87708 31.244707 0.50743133 -0.89145285 0.12401419 0.048737016
105.03818 104.88809 31.243601 -0.63964576 -0.66579288 0.38329861 0.034123294
105.04319 104.88354 31.245564 -0.59372622 -0.70043451 0.39283171 0.025066731
105.07964 104.88027 31.247837 0.50513768 -0.87455171 0.11961053 0.048668116
105.08298 104.88293 31.245636 0.52298725 -0.85856342 0.069348626 0.048627783
105.09078 104.88992 31.244635 0.4706271 -0.88372236 0.047614478 0.061103728
105.02824 104.89828 31.242844 -0.27113289 -0.28276706 0.15134504 0.057819862
105.03376 104.89415 31.245749 0.38488814 0.37111506 -0.25502461 0.033514269
105.09679 104.89256 31.244831 0.42344064 -0.89916819 0.10336055 0.067476168
105.1027 104.89908 31.247202 0.2624661 -0.96497202 0.043167371 0.089113049
105.12727 104.89717 31.245289 -0.6115616 -0.68228817 -0.056652989 0.16137718
105.13454 104.89364 31.244827 -0.294597 -0.97319663 0.12886727 0.13183576
105.14484 104.89362 31.245213 0.26144361 -0.89090836 0.30071622 0.10592484
105.15186 104.89838 31.243599 0.62398237 -0.69774246 0.35927606 0.086745977
105.01822 104.90835 31.241966 0.6768837 0.58880395 -0.44210482 0.072157584
105.02439 104.90441 31.245584 0.61720997 0.57304436 -0.43550333 0.045938466
105.03031 104.90044 31.249296 0.64609677 0.60710096 -0.4626143 0.020455824
105.10655 104.90134 31.244434 0.19365421 -0.98080802 0.051476695 0.11915307
105.11642 104.90311 31.243137 -0.086500764 -0.9922924 -0.016731715 0.14707565
105.12351 104.90417 31.24539 0.43118739 0.030890113 0.11635529 0.18032674
105.14968 104.90094 31.24913 0.59183985 -0.67155242 0.45543161 0.10006699
105.15367 104.90498 31.244787 0.72090089 -0.55647755 0.40729609 0.082962841
105.00903 104.91843 31.241264 0.73419529 0.55343091 -0.39262906 0.063447632
105.01453 104.91491 31.244926 0.69086891 0.56869423 -0.44532007 0.053723332
105.02095 104.91095 31.248854 0.65859646 0.57897305 -0.48067299 0.036675312
105.07962 104.91894 31.242428 0.89444667 0.44425359 -0.060377669 0.030491171
105.12615 104.91498 31.245333 0.90148818 -0.17785622 0.10768638 0.18733233
105.13062 104.91846 31.242634 0.8046667 -0.56918532 -0.011005151 0.18179163
105.15614 104.91469 31.244896 0.82694304 -0.35927328 0.42910242 0.086200409
105.00509 104.92553 31.244701 0.78905243 0.45619622 -0.40531772 0.066107251
105.01118 104.9212 31.248213 0.697882 0.55174375 -0.45660493 0.032800358
105.04691 104.92844 31.241528 0.41567606 -0.69523388 0.68377018 0.14818689
105.07574 104.92728 31.244638 0.91004556 0.4339461 -0.031452104 0.085081145
105.1265 104.92255 31.244839 0.87496406 -0.32837644 0.17227027 0.10533351
105.13102 104.923 31.242237 0.68223625 -0.7856428 -0.099888019 0.14169204
105.15892 104.92229 31.24629 0.83901203 -0.3015233 0.45241341 0.049143046
105.16196 104.92673 31.244099 0.8276276 -0.30857211 0.46826708 0.035981718
104.99729 104.9361 31.244713 0.93544853 0.096496366 -0.32841265 0.08658307
105.0023 104.93143 31.24687 0.84352696 0.35846126 -0.37395576 0.10833368
105.01566 104.93405 31.243244 -0.08360818 -0.56156135 0.25050402 0.24610552
105.02863 104.93965 31.242031 1.1689744 0.53301376 -0.32772446 0.22453533
105.03692 104.93499 31.243412 0.4231438 -0.74098098 0.24493265 0.16114873
105.04344 104.93275 31.245045 0.24316029 -0.81564379 0.46390271 0.1568262
105.06736 104.93817 31.247038 0.27950871 -0.30165914 0.39426875 0.14775217
105.07258 104.93313 31.244402 0.80660683 0.36972174 0.12283798 0.1020229
105.16504 104.93514 31.24506 0.81942606 -0.28034762 0.49985054 0.013001109
104.99633 104.94485 31.245026 0.92276174 -0.38764441 -0.20380858 0.09626282
105.01994 104.9415 31.240484 -0.33435184 -0.89295781 0.35916108 0.25100487
105.02469 104.94473 31.242781 0.31545663 -0.27316523 0.10400345 0.24956436
105.03188 104.94308 31.246775 0.53272611 -0.042701513 0.21222489 0.21883075
105.05931 104.94156 31.247913 -0.12704915 -0.9170149 0.39549318 0.18203883
105.06529 104.94308 31.244448 0.49164087 -0.043127205 0.30494067 0.13610074
105.16775 104.94478 31.245949 0.83132142 -0.25563496 0.49345535 0.012471233
105.1709 104.94723 31.24151 0.8454026 -0.22942404 0.48234764 0.029568646
104.99949 104.95045 31.244059 0.81088895 -0.68850082 -0.10338259 0.10132732
105.00487 104.95457 31.245239 0.70686573 -0.78755212 -0.07615561 0.10965814
105.01221 104.95852 31.245613 0.5153771 -0.91002738 -0.007117969 0.1374571
105.05781 104.95581 31.242638 0.83729625 0.46868157 0.28395653 0.12570101
105.0618 104.95223 31.245195 0.84086442 0.4093965 0.36370054 0.13239448
105.16911 104.95241 31.248259 0.84177244 -0.25577888 0.47543487 0.0082881525
105.17222 104.95589 31.244305 0.86290228 -0.22817799 0.45049536 0.019681068
105.01404 104.96017 31.249098 0.69455218 -0.74378991 -0.022050682 0.12897322
105.02409 104.96729 31.243944 0.8161121 -0.58047217 0.013060292 0.082974181
105.0497 104.96687 31.246367 0.81257915 0.53541237 0.23476751 0.12404417
105.05319 104.96539 31.242502 0.80548185 0.5407055 0.23998612 0.073853195
105.17531 104.96532 31.245136 0.89325428 -0.12972325 0.428258 0.021761572
105.02785 104.97131 31.248722 0.8835727 -0.46831894 0.042618528 0.1014514
105.04733 104.97495 31.243624 0.90036297 0.42255878 0.17695281 0.1711624
105.17732 104.97536 31.245178 0.91033286 0.10324323 0.39561647 0.031640667
105.05028 104.98486 31.243088 0.95072144 0.27736542 0.24300009 0.23528661
105.17549 104.98524 31.244778 0.83269686 0.52534604 0.31740832 0.03873146
105.04077 104.99805 31.24192 0.30385822 0.055154383 0.1971911 0.25651732
105.15929 104.99949 31.246769 -0.34346944 -0.47626013 -0.13384011 0.040690787
105.16618 104.99501 31.246046 0.55948061 0.6894387 0.2172837 0.039641887
105.17139 104.99124 31.243999 0.70465511 0.77968216 0.24552466 0.041091353
105.02654 105.00762 31.245512 0.75219721 0.66412234 0.11116083 0.15827511
105.0348 105.00423 31.245026 -0.065257147 -0.2926369 -0.11327105 0.1867453
105.04414 105.00447 31.244858 -0.135584 -0.94770449 -0.24128798 0.17013972
105.05424 105.00597 31.246408 0.17277811 -0.93453544 -0.19284043 0.12257423
105.06374 105.00634 31.247635 0.24448524 -1.0126592 -0.12646951 0.13384397
105.0743 105.00859 31.247658 0.38200906 -1.481825 -0.15817617 0.20616874
105.08002 105.00967 31.249634 0.28349447 -1.425545 -0.099482536 0.17257911
105.1356 105.00884 31.247734 0.016959012 -0.011920124 -0.025094755 0.065322384
105.14516 105.00596 31.246059 -0.63553226 -0.740574 -0.23012488 0.046257954
105.15519 105.00162 31.244095 -0.6223945 -0.75348502 -0.22050445 0.034851585
105.01757 105.01655 31.245375 0.98056966 0.15588236 -0.13136999 0.14622799
105.02184 105.01151 31.244078 0.87529135 0.47732866 -0.001509154 0.14557251
105.04333 105.01169 31.241785 0.0020588811 -0.95039034 0.025823347 0.25130552
105.05547 105.01359 31.24287 0.36614734 -0.9065367 -0.1242917 0.18922931
105.06586 105.0154 31.245323 0.4406614 -0.84131664 0.13651644 0.20488949
105.07595 105.01454 31.244835 0.45452717 -0.85528445 0.18376178 0.2239607
105.08484 105.01235 31.24712 0.24772835 -1.5048348 -0.031570099 0.19767468
105.09422 105.01382 31.24856 0.21148436 -1.2021246 0.020467004 0.17735876
105.1059 105.01688 31.24589 0.46146759 -0.88317883 -0.12953326 0.14926766
105.1154 105.01789 31.245974 0.77729678 -0.79091114 -0.21079244 0.17667109
105.12644 105.01684 31.246614 0.56032491 0.35159412 0.055446934 0.14059778
105.13607 105.01114 31.241276 0.021167219 -0.0066910386 -0.029252462 0.078753985
105.01798 105.02244 31.244349 0.98202789 -0.12901667 -0.18827508 0.12948722
105.02489 105.02565 31.244997 0.78965014 -0.49746248 -0.32488939 0.13876395
105.0349 105.02828 31.245264 0.53130233 -0.75428998 -0.38209665 0.13055529
105.04214 105.02927 31.247244 0.38614848 -0.8282904 -0.40504131 0.11500008
105.06406 105.02074 31.24007 0.53925669 -0.81766385 -0.21960382 0.20331889
105.07432 105.02216 31.241629 0.47744453 -0.85915726 -0.18160637 0.21637368
105.08547 105.0247 31.244577 0.16165033 -0.90588844 -0.04726981 0.20441298
105.09426 105.0252 31.243608 0.12236193 -0.97365969 -0.091159232 0.1845762
105.10361 105.02119 31.242266 0.43151096 -0.86999899 -0.22973973 0.14171037
105.11857 105.02116 31.242399 0.86719143 -0.86340755 -0.21504068 0.16401312
105.12208 105.02565 31.245787 0.99603772 0.062574998 0.13777097 0.14163995
105.03796 105.0306 31.241438 0.46593052 -0.81260556 -0.35260102 0.12311274
105.04583 105.0319 31.244017 0.34414402 -0.86507988 -0.36072534 0.1262556
105.05456 105.03587 31.245277 0.25555849 -0.88462085 -0.38665578 0.087045781
105.06464 105.0383 31.246655 0.20561144 -0.8793065 -0.429593 0.062468313
105.07412 105.03925 31.248466 0.17755412 -0.87737691 -0.4458591 0.05530645
105.0809 105.03969 31.249401 0.16100755 -0.87993658 -0.44703454 0.061068699
105.09667 105.03031 31.240599 0.01793517 -0.9954505 -0.10991389 0.18437521
105.12264 105.0347 31.244946 1.0041536 0.20261134 0.21364871 0.11664288
105.05806 105.04054 31.241093 0.24328721 -0.89985406 -0.3622002 0.059275527
105.06592 105.04142 31.241949 0.21031182 -0.89897412 -0.38415566 0.075785957
105.0752 105.0421 31.243975 0.16893874 -0.89513332 -0.41239223 0.064660117
105.08514 105.04325 31.245199 0.13697144 -0.90881068 -0.39170253 0.062013574
105.09506 105.04536 31.245148 0.054171279 -0.92415786 -0.37185985 0.060677789
105.10487 105.04728 31.245106 -0.17694944 -0.91385889 -0.36247107 0.078762211
105.11575 105.04622 31.24493 -0.5418818 -0.74260515 -0.31407309 0.094207704
105.12118 105.04184 31.244492 0.79286778 0.41554657 0.21588401 0.10387289
105.05573 104.87774 31.254038 -0.2671693 -0.84827441 0.44726339 0.050471131
105.06388 104.8765 31.255486 0.014753702 -0.91529751 0.40434763 0.053986106
105.07512 104.87856 31.253044 0.38392007 -0.91751522 0.22584468 0.051351584
105.04585 104.88587 31.254358 -0.55272746 -0.6814726 0.47519216 0.016751109
105.0526 104.8817 31.257725 -0.38009351 -0.76582599 0.5147773 0.039247647
105.07732 104.88103 31.256767 0.31499514 -0.92514622 0.25316751 0.058096863
105.08265 104.88353 31.254372 0.41309252 -0.91181862 0.12956601 0.067151107
105.09064 104.88936 31.256765 0.38175654 -0.94757223 -0.0028635738 0.099729002
105.03689 104.89622 31.254347 0.57435143 0.53425735 -0.42787573 0.0071351826
105.04175 104.8923 31.257122 -0.15535204 -0.17155159 0.12553319 0.008491925
105.09438 104.89173 31.253782 0.43710628 -0.90560001 0.013704771 0.10099944
105.10499 104.89748 31.256945 0.28448373 -0.9456138 -0.14270829 0.14757261
105.11635 104.89778 31.257038 0.34243852 -0.9439069 0.040761117 0.21502644
105.12488 104.89941 31.255547 0.13968302 -0.92839116 0.1600225 0.17803413
105.13454 104.89755 31.253624 0.11830147 -0.92689675 0.36611509 0.1216566
105.14442 104.89754 31.25318 0.39275309 -0.77307397 0.47792444 0.097089417
105.0276 104.90726 31.253775 0.64485079 0.57844007 -0.49974173 0.021851355
105.03225 104.90303 31.256023 0.64537448 0.58157545 -0.49524462 0.010184362
105.10973 104.90229 31.252913 0.16557913 -0.98407906 -0.081841215 0.173586
105.11898 104.90219 31.255602 -0.010001007 -0.98044014 -0.12158087 0.21613961
105.12366 104.90245 31.254642 0.079663396 -0.74141008 0.057055779 0.19250147
105.13416 104.90289 31.258602 0.42935669 -0.74467868 0.42140642 0.13392599
105.1468 104.90401 31.256399 0.55300122 -0.60538542 0.56854707 0.089905657
105.15135 104.90713 31.252506 0.69824564 -0.49430117 0.51630676 0.066541359
105.01784 104.9176 31.253153 0.65825051 0.56586039 -0.49639422 0.024914496
105.02338 104.91371 31.255919 0.64374918 0.57018214 -0.51051396 0.025883451
105.12592 104.91446 31.25425 0.95643789 -0.15740988 -0.03863119 0.19426434
105.13023 104.91038 31.258221 0.93398046 -0.36889666 -0.054959759 0.22358418
105.1491 104.9119 31.25878 0.67221665 -0.41040099 0.61587465 0.064140685
105.15298 104.91542 31.254656 0.76505131 -0.34662235 0.53976524 0.049506404
105.00759 104.9278 31.253523 0.74344969 0.44526717 -0.4980216 0.053246822
105.01382 104.92355 31.255737 0.67166537 0.52824771 -0.51820439 0.032208756
105.07654 104.92768 31.250807 0.86946315 0.5140304 -0.093732499 0.098226495
105.12482 104.92027 31.250307 0.92812616 -0.36888009 -0.056149799 0.16175942
105.1568 104.92516 31.255163 0.81187081 -0.27774152 0.51260507 0.011566552
105.16049 104.92976 31.250471 0.83025122 -0.27503726 0.48505926 0.0051865722
104.99899 104.93806 31.25205 0.89811498 0.079194151 -0.43053287 0.089580745
105.00343 104.93481 31.256018 0.82108051 0.22035223 -0.51495647 0.08650586
105.03896 104.93817 31.251907 0.44127446 -0.97953546 0.035432693 0.18236503
105.04536 104.93611 31.255569 0.26164812 0.087493487 0.7403816 0.19351706
105.06655 104.9396 31.251431 0.073887095 -0.67106211 0.58313477 0.14511368
105.07417 104.93371 31.253677 -0.63789278 -0.56682497 0.23212227 0.14729182
105.15862 104.93398 31.257444 0.80971289 -0.26404837 0.52372485 0.0066778916
105.16144 104.93633 31.253054 0.82504392 -0.27041906 0.4964084 0.0057248413
104.99847 104.94386 31.252918 0.90101272 -0.22435513 -0.38277817 0.098569743
105.0025 104.94541 31.257427 0.87091565 -0.18392287 -0.45468467 0.092274137
105.01714 104.94321 31.252743 0.98971117 0.080911756 -0.20462348 0.2904273
105.03835 104.94336 31.255943 0.53729039 0.17446421 0.82634819 0.27001882
105.04336 104.94237 31.257961 0.40973705 0.35404506 0.83391654 0.20135042
105.05843 104.94751 31.258602 0.18266362 -0.40259975 0.89753324 0.12687629
105.06506 104.94328 31.255148 0.61661643 -0.25234985 0.7144205 0.14067079
105.15985 104.94131 31.259552 0.7962898 -0.26068676 0.54586482 0.0075623058
105.16344 104.94532 31.255077 0.817608 -0.26779452 0.509431 0.0063187624
105.0067 104.95424 31.254616 0.87618935 -0.4628154 -0.26619434 0.10461093
105.01152 104.9589 31.256266 0.88389534 -0.47006178 -0.20516659 0.12826981
105.03551 104.95801 31.258181 -0.22237125 -0.84610033 -0.48700944 0.28093031
105.05829 104.95882 31.258812 1.2161177 0.57673764 0.58436662 0.17165425
105.06219 104.95398 31.255835 0.95641059 0.43480009 0.50417829 0.17637382
105.16673 104.95515 31.255274 0.82033974 -0.24688281 0.51494259 0.0074607139
105.17039 104.95923 31.250879 0.84761721 -0.23192969 0.47741869 0.0065776608
105.01432 104.96137 31.255522 0.83975595 -0.5833264 -0.12254666 0.15353529
105.02607 104.9639 31.258549 0.57596731 -0.17275618 0.88095415 0.27636284
105.05665 104.96539 31.254927 1.0098369 0.49867922 0.36882198 0.19204748
105.16856 104.96391 31.257692 0.81780523 -0.159384 0.55063587 0.0160725
105.17175 104.96623 31.253376 0.85610735 -0.12750982 0.49846661 0.018841468
105.02954 104.97598 31.256952 0.92885172 -0.34883523 0.14652345 0.12045908
105.03117 104.97604 31.254099 0.93670595 -0.34531561 0.10139067 0.12592477
105.05169 104.97507 31.255102 0.84742469 0.31169772 0.48949191 0.18501998
105.16961 104.97393 31.259674 0.80707747 0.043859601 0.58364403 0.031896073
105.17285 104.9752 31.254793 0.85506868 0.078368723 0.50557113 0.034225546
105.03339 104.98501 31.259497 0.81345904 0.11391187 0.67280304 0.21706736
105.1681 104.9866 31.257551 0.77464134 0.4274337 0.48913994 0.041324772
105.17229 104.98397 31.253757 0.81433713 0.39640003 0.45084643 0.042106375
105.03535 104.99886 31.255337 0.56186879 0.39752895 0.19913079 0.22698873
105.04413 104.99651 31.25618 -0.18114266 -0.44833979 -0.35913587 0.19986093
105.12267 104.99994 31.255232 -0.44840863 0.20499091 1.3555728 0.17933351
105.13048 104.99784 31.256269 -0.28555077 0.31006697 1.2993449 0.11704797
105.15742 104.99726 31.256742 0.71603489 0.70318526 0.27285644 0.067008644
105.1647 104.99275 31.254843 0.7259627 0.64190847 0.36593035 0.04738928
105.02632 105.00566 31.255482 0.9789378 0.18801454 -0.058772825 0.16169043
105.0334 105.00142 31.253033 0.59852403 0.3716774 0.16170236 0.20281292
105.04475 105.00677 31.252939 0.36851206 -0.90336245 0.1199436 0.20583001
105.05415 105.00363 31.252831 0.14351667 -0.94339824 -0.14231767 0.14737326
105.06636 105.00425 31.253674 0.23796809 -0.99667007 -0.18795396 0.10436527
105.0726 105.00578 31.255913 0.21854806 -0.93309808 -0.19145602 0.044284657
105.08749 105.00561 31.257391 0.23143591 -0.73126858 -0.69929475 0.043837417
105.09183 105.00897 31.257128 0.28991738 -0.79197937 -0.42683554 0.081155926
105.10683 105.008 31.250643 -0.31197864 -0.21167006 1.0390067 0.21206439
105.13702 105.0068 31.256628 -0.26931611 -0.23493409 0.10281307 0.10043348
105.14462 105.00588 31.255823 -0.23463902 -0.31733438 -0.13794035 0.098804742
105.15295 105.00146 31.254818 0.69255 0.74229199 0.19711815 0.089541763
105.01894 105.01705 31.252066 0.9614315 0.039509218 -0.28588688 0.14257608
105.0233 105.01471 31.256113 0.92407668 -0.068861954 -0.3601872 0.13629049
105.04542 105.01335 31.253151 0.56776416 -0.77196193 0.31915709 0.19526015
105.05387 105.01585 31.252998 0.44760862 -0.81557184 0.40163055 0.18492599
105.06191 105.01428 31.254501 0.42732093 -0.80363894 0.3906807 0.17529599
105.074 105.01752 31.255867 0.23159678 -0.88785446 0.42099509 0.15025635
105.08838 105.01418 31.258518 0.22954553 -0.93320543 0.27988693 0.098889388
105.0964 105.01402 31.250416 0.19027553 -1.1156251 0.15020923 0.17115308
105.10444 105.01611 31.252029 0.34371856 -0.92984581 0.17106646 0.19653694
105.11589 105.01601 31.253012 0.71823633 -0.30257794 0.022013325 0.22415905
105.12315 105.0179 31.253462 0.4171232 0.086968318 0.10248971 0.1808476
105.13304 105.01231 31.254822 -0.69697785 -0.71901262 -0.065585203 0.096695684
105.14584 105.01035 31.254459 -0.54094416 -0.7764464 -0.32915726 0.11217708
105.01915 105.02118 31.251331 0.92598331 -0.20142284 -0.33813274 0.12371942
105.02567 105.02248 31.254333 0.76622516 -0.41313365 -0.47415465 0.14188068
105.03485 105.02558 31.255297 0.52472204 -0.6777637 -0.5075897 0.12312651
105.04423 105.02763 31.255514 0.33427849 -0.79396087 -0.50447613 0.094474718
105.05318 105.02676 31.257477 0.31737205 -0.80503935 -0.26498967 0.10686149
105.06334 105.02209 31.256031 0.56834412 -0.73951608 0.44469023 0.2366623
105.07406 105.02074 31.25556 0.22604772 -0.87256777 0.47908878 0.1800683
105.08475 105.0269 31.255848 0.065527178 -0.88522935 0.54371959 0.20318893
105.09457 105.02357 31.254282 0.038690586 -0.86972803 0.52720106 0.19439407
105.10534 105.02475 31.255796 0.065005705 -0.93843859 0.34054688 0.22033858
105.11787 105.02706 31.257399 -0.41904369 -0.48434252 -0.25647736 0.15514223
105.1219 105.02392 31.253136 0.28349593 0.1515892 0.053644303 0.14297098
105.04777 105.0307 31.252131 0.28399268 -0.84292573 -0.4564268 0.06828443
105.05531 105.0321 31.254354 0.21684448 -0.84848171 -0.48200923 0.043425541
105.06509 105.03371 31.254803 0.192929 -0.84672302 -0.49560463 0.050891429
105.07498 105.03593 31.254972 0.17839904 -0.85122865 -0.49333504 0.045006104
105.08453 105.03788 31.256004 0.13929866 -0.85321999 -0.50214922 0.044884231
105.0943 105.03902 31.25857 0.038566858 -0.83357823 -0.54884088 0.057545323
105.1072 105.0396 31.259714 -0.29391086 -0.74641895 -0.59614319 0.084691465
105.11613 105.03548 31.255959 -0.1936183 -0.31014007 -0.23959945 0.10322507
105.12052 105.03436 31.250887 0.85842562 0.41552225 0.35472855 0.112134
105.08702 105.04074 31.251926 0.13193627 -0.87375921 -0.46796545 0.036911502
105.09547 105.04207 31.25383 0.043500829 -0.86434406 -0.49825814 0.045999713
105.10509 105.04313 31.255146 -0.19685088 -0.82140535 -0.5293507 0.079755053
105.11457 105.04266 31.253386 -0.43868771 -0.6282444 -0.44767922 0.0958203
105.12061 105.04037 31.252052 0.73044157 0.57814151 0.36959958 0.074346915
105.06406 104.8797 31.260401 -0.072972432 -0.87475836 0.48016819 0.045519277
